# .PCD v.7 - Point Cloud Data file format
VERSION .7
FIELDS x y z
SIZE 4 4 4 
TYPE F F F 
COUNT 1 1 1 
WIDTH 1840
HEIGHT 1
VIEWPOINT 0 0 0 1 0 0 0
POINTS 1840
DATA ascii
-33.313 -7.65991 -21.4137
-33.313 -7.2222 -21.4137
-33.313 -6.78449 -21.4137
-33.313 -6.34678 -21.4137
-33.313 -5.90907 -21.4137
-33.313 -5.47137 -21.4137
-33.313 -5.03366 -21.4137
-33.313 -4.59595 -21.4137
-33.313 -4.15824 -21.4137
-33.313 -3.72053 -21.4137
-33.313 -3.28282 -21.4137
-33.313 -2.84511 -21.4137
-33.313 -2.4074 -21.4137
-33.313 -1.96969 -21.4137
-33.313 -1.53198 -21.4137
-33.313 -1.09427 -21.4137
-33.313 -0.656564 -21.4137
-33.313 -0.218855 -21.4137
-33.313 0.218855 -21.4137
-33.313 0.656564 -21.4137
-33.313 1.09427 -21.4137
-33.313 1.53198 -21.4137
-33.313 1.96969 -21.4137
-33.313 2.4074 -21.4137
-33.313 2.84511 -21.4137
-33.313 3.28282 -21.4137
-33.313 3.72053 -21.4137
-33.313 4.15824 -21.4137
-33.313 4.59595 -21.4137
-33.313 5.03366 -21.4137
-33.313 5.47137 -21.4137
-33.313 5.90907 -21.4137
-33.313 6.34678 -21.4137
-33.313 15.101 -21.4137
-33.313 15.5387 -21.4137
-33.313 15.9764 -21.4137
-33.313 16.4141 -21.4137
-33.313 27.3568 -21.4137
-33.313 32.1716 -21.4137
-33.313 32.6093 -21.4137
-33.313 33.047 -21.4137
-33.313 53.6194 -21.4137
-33.313 54.0571 -21.4137
-33.313 54.4948 -21.4137
-33.313 54.9325 -21.4137
-33.313 59.3096 -21.4137
-29.6026 1.09045 -21.339
-29.6026 1.52664 -21.339
-29.6026 1.96282 -21.339
-29.6026 2.399 -21.339
-29.6026 2.83518 -21.339
-29.6026 3.27136 -21.339
-29.6026 3.70755 -21.339
-29.6026 4.14373 -21.339
-29.6026 4.57991 -21.339
-29.6026 5.01609 -21.339
-29.6026 5.45227 -21.339
-29.6026 5.88846 -21.339
-29.6026 6.32464 -21.339
-29.6026 6.76082 -21.339
-29.6026 7.197 -21.339
-29.6026 7.63318 -21.339
-29.6026 8.06936 -21.339
-29.6026 8.50555 -21.339
-29.6026 8.94173 -21.339
-29.6026 9.37791 -21.339
-29.6026 9.81409 -21.339
-29.6026 10.2503 -21.339
-29.6026 10.6865 -21.339
-29.6026 11.1226 -21.339
-29.6026 11.5588 -21.339
-29.6026 11.995 -21.339
-29.6026 12.4312 -21.339
-29.6026 12.8674 -21.339
-29.6026 13.3035 -21.339
-29.6026 13.7397 -21.339
-29.6026 15.4845 -21.339
-29.6026 15.9206 -21.339
-29.6026 16.3568 -21.339
-29.6026 16.793 -21.339
-29.6026 17.2292 -21.339
-29.6026 17.6654 -21.339
-29.6026 18.1015 -21.339
-29.6026 18.5377 -21.339
-29.6026 18.9739 -21.339
-29.6026 19.4101 -21.339
-29.6026 19.8463 -21.339
-29.6026 20.2825 -21.339
-29.6026 20.7186 -21.339
-29.6026 21.1548 -21.339
-29.6026 21.591 -21.339
-29.6026 22.0272 -21.339
-29.6026 22.4634 -21.339
-29.6026 22.8995 -21.339
-29.6026 23.3357 -21.339
-29.6026 23.7719 -21.339
-29.6026 25.5166 -21.339
-29.6026 25.9528 -21.339
-29.6026 26.389 -21.339
-29.6026 26.8252 -21.339
-29.6026 28.5699 -21.339
-29.6026 29.0061 -21.339
-29.6026 29.4423 -21.339
-29.6026 29.8785 -21.339
-29.6026 30.3146 -21.339
-29.6026 30.7508 -21.339
-29.6026 31.187 -21.339
-29.6026 31.6232 -21.339
-29.6026 32.0594 -21.339
-29.6026 32.4956 -21.339
-29.6026 32.9317 -21.339
-29.6026 33.3679 -21.339
-29.6026 33.8041 -21.339
-29.6026 34.2403 -21.339
-29.6026 34.6765 -21.339
-29.6026 35.1126 -21.339
-29.6026 35.5488 -21.339
-29.6026 35.985 -21.339
-29.6026 36.4212 -21.339
-29.6026 36.8574 -21.339
-29.6026 37.2936 -21.339
-29.6026 37.7297 -21.339
-29.6026 38.1659 -21.339
-29.6026 38.6021 -21.339
-29.6026 39.0383 -21.339
-29.6026 39.4745 -21.339
-29.6026 39.9106 -21.339
-29.6026 40.3468 -21.339
-29.6026 40.783 -21.339
-29.6026 41.2192 -21.339
-29.6026 41.6554 -21.339
-29.6026 42.0916 -21.339
-29.6026 42.5277 -21.339
-29.6026 42.9639 -21.339
-29.6026 43.4001 -21.339
-29.6026 43.8363 -21.339
-29.6026 44.2725 -21.339
-29.6026 44.7086 -21.339
-29.6026 45.1448 -21.339
-29.6026 45.581 -21.339
-29.6026 46.0172 -21.339
-29.6026 46.4534 -21.339
-29.6026 46.8896 -21.339
-29.6026 47.3257 -21.339
-29.6026 47.7619 -21.339
-29.6026 48.1981 -21.339
-29.6026 48.6343 -21.339
-29.6026 49.0705 -21.339
-29.6026 49.5066 -21.339
-29.6026 49.9428 -21.339
-29.6026 50.379 -21.339
-29.6026 50.8152 -21.339
-25.9181 14.1266 -21.2648
-25.9181 16.7346 -21.2648
-25.9181 17.1693 -21.2648
-25.9181 17.6039 -21.2648
-25.9181 18.0386 -21.2648
-25.9181 18.4733 -21.2648
-25.9181 18.9079 -21.2648
-25.9181 19.3426 -21.2648
-25.9181 19.7773 -21.2648
-25.9181 20.2119 -21.2648
-25.9181 20.6466 -21.2648
-25.9181 21.0813 -21.2648
-25.9181 21.5159 -21.2648
-25.9181 21.9506 -21.2648
-25.9181 22.3853 -21.2648
-25.9181 22.8199 -21.2648
-25.9181 23.2546 -21.2648
-25.9181 25.8626 -21.2648
-25.9181 26.2972 -21.2648
-25.9181 28.9052 -21.2648
-25.9181 29.3399 -21.2648
-25.9181 29.7746 -21.2648
-25.9181 30.2092 -21.2648
-25.9181 30.6439 -21.2648
-25.9181 35.8599 -21.2648
-25.9181 36.2945 -21.2648
-25.9181 36.7292 -21.2648
-25.9181 37.1639 -21.2648
-25.9181 37.5985 -21.2648
-25.9181 38.0332 -21.2648
-25.9181 38.4679 -21.2648
-25.9181 38.9025 -21.2648
-25.9181 39.3372 -21.2648
-25.9181 39.7719 -21.2648
-25.9181 40.2065 -21.2648
-25.9181 40.6412 -21.2648
-25.9181 41.0759 -21.2648
-25.9181 41.5105 -21.2648
-25.9181 41.9452 -21.2648
-25.9181 42.3799 -21.2648
-25.9181 42.8145 -21.2648
-25.9181 44.5532 -21.2648
-25.9181 44.9878 -21.2648
1758.8 4.95016 18.3465
1934.68 9.12401 22.7739
1934.68 8.7516 22.7739
1937.38 8.77775 22.8419
4534.31 172.383 88.2153
4575.22 174.396 89.2452
5726.75 240.709 118.233
7402.3 234.771 160.412
-5666.31 420.368 -168.569
-1852.46 -245.023 -72.5611
-1852.46 -243.837 -72.5611
-1852.46 -242.65 -72.5611
-1825.35 -243.895 -71.8788
-1825.35 -242.719 -71.8788
-1825.35 -241.544 -71.8788
-222.99 -300.963 -31.542
-222.99 -300.447 -31.542
-222.99 -299.931 -31.542
-222.99 -299.416 -31.542
-222.99 -298.9 -31.542
-222.99 -298.384 -31.542
-222.99 -297.868 -31.542
-222.99 -297.352 -31.542
-222.99 -296.837 -31.542
-222.99 -296.321 -31.542
-222.99 -295.805 -31.542
-222.99 -295.289 -31.542
-222.99 -294.773 -31.542
-222.99 -294.258 -31.542
-222.99 -293.742 -31.542
-222.99 -293.226 -31.542
-222.99 -292.71 -31.542
-222.99 -292.195 -31.542
-222.99 -291.679 -31.542
-222.99 -291.163 -31.542
-222.99 -290.647 -31.542
-222.99 -290.131 -31.542
-222.99 -289.616 -31.542
-222.99 -289.1 -31.542
-222.99 -288.584 -31.542
-222.99 -288.068 -31.542
-222.99 -287.552 -31.542
-222.99 -287.037 -31.542
-222.99 -286.521 -31.542
-222.99 -286.005 -31.542
-222.99 -285.489 -31.542
-222.99 -284.973 -31.542
-222.99 -284.458 -31.542
-222.99 -283.942 -31.542
-222.99 -283.426 -31.542
-222.99 -282.91 -31.542
-222.99 -282.395 -31.542
-222.99 -281.879 -31.542
-222.99 -281.363 -31.542
-222.99 -280.847 -31.542
-222.99 -279.816 -31.542
-222.99 -279.3 -31.542
-222.99 -278.784 -31.542
-222.99 -278.268 -31.542
-222.99 -277.752 -31.542
-222.99 -277.237 -31.542
-222.99 -276.721 -31.542
-222.99 -276.205 -31.542
-222.99 -275.689 -31.542
-222.99 -275.173 -31.542
-222.99 -274.658 -31.542
-222.99 -274.142 -31.542
-222.99 -273.626 -31.542
-217.841 -257.605 -31.4124
-217.841 -257.092 -31.4124
-217.841 -256.578 -31.4124
-217.841 -251.441 -31.4124
-217.841 -250.928 -31.4124
-217.841 -250.414 -31.4124
-217.841 -249.9 -31.4124
-217.841 -249.387 -31.4124
-217.841 -248.873 -31.4124
-217.841 -248.359 -31.4124
-217.841 -247.846 -31.4124
-217.841 -247.332 -31.4124
-217.841 -246.818 -31.4124
-217.841 -246.305 -31.4124
-217.841 -245.791 -31.4124
-217.841 -245.277 -31.4124
-217.841 -244.764 -31.4124
-217.841 -244.25 -31.4124
-217.841 -243.736 -31.4124
-217.841 -243.223 -31.4124
-217.841 -242.709 -31.4124
-217.841 -242.195 -31.4124
-217.841 -241.682 -31.4124
-217.841 -241.168 -31.4124
-217.841 -240.654 -31.4124
-217.841 -240.14 -31.4124
-217.841 -239.627 -31.4124
-217.841 -239.113 -31.4124
-217.841 -238.599 -31.4124
-217.841 -238.086 -31.4124
-217.841 -237.572 -31.4124
-217.841 -237.058 -31.4124
-217.841 -236.545 -31.4124
-217.841 -236.031 -31.4124
-217.841 -235.517 -31.4124
-217.841 -235.004 -31.4124
-217.841 -234.49 -31.4124
-217.841 -233.976 -31.4124
-217.841 -233.463 -31.4124
-217.841 -232.949 -31.4124
-217.841 -232.435 -31.4124
-217.841 -231.922 -31.4124
-217.841 -231.408 -31.4124
-217.841 -230.894 -31.4124
-217.841 -230.381 -31.4124
-217.841 -229.867 -31.4124
-217.841 -229.353 -31.4124
-217.841 -228.84 -31.4124
-217.841 -228.326 -31.4124
-217.841 -227.812 -31.4124
-217.841 -227.299 -31.4124
-217.841 -226.785 -31.4124
-217.841 -226.271 -31.4124
-217.841 -225.758 -31.4124
-217.841 -225.244 -31.4124
-217.841 -224.73 -31.4124
-217.841 -224.217 -31.4124
-217.841 -223.703 -31.4124
-217.841 -223.189 -31.4124
-217.841 -222.676 -31.4124
-217.841 -222.162 -31.4124
-217.841 -221.648 -31.4124
-217.841 -221.135 -31.4124
-217.841 -220.621 -31.4124
-217.841 -220.107 -31.4124
-217.841 -219.594 -31.4124
-217.841 -219.08 -31.4124
-217.841 -218.566 -31.4124
-217.841 -218.053 -31.4124
-217.841 -217.539 -31.4124
-217.841 -217.025 -31.4124
-217.841 -216.512 -31.4124
-217.841 -215.998 -31.4124
-217.841 -215.484 -31.4124
-217.841 -214.971 -31.4124
-217.841 -214.457 -31.4124
-217.841 -213.943 -31.4124
-217.841 -213.43 -31.4124
-217.841 -212.916 -31.4124
-217.841 -212.402 -31.4124
-217.841 -211.889 -31.4124
-217.841 -211.375 -31.4124
-217.841 -210.861 -31.4124
-217.841 -210.348 -31.4124
-217.841 -209.834 -31.4124
-217.841 -209.32 -31.4124
-212.734 -187.489 -31.2838
-212.734 -186.978 -31.2838
-212.734 -186.466 -31.2838
-212.734 -185.955 -31.2838
-212.734 -185.443 -31.2838
-212.734 -184.932 -31.2838
-212.734 -184.42 -31.2838
-212.734 -183.908 -31.2838
-212.734 -183.397 -31.2838
-212.734 -182.885 -31.2838
-212.734 -182.374 -31.2838
-212.734 -181.862 -31.2838
-212.734 -181.351 -31.2838
-212.734 -180.839 -31.2838
-212.734 -180.327 -31.2838
-212.734 -179.816 -31.2838
-212.734 -179.304 -31.2838
-212.734 -178.793 -31.2838
-212.734 -178.281 -31.2838
-212.734 -177.77 -31.2838
-212.734 -177.258 -31.2838
-212.734 -176.747 -31.2838
-212.734 -176.235 -31.2838
-212.734 -175.723 -31.2838
-212.734 -175.212 -31.2838
-212.734 -174.7 -31.2838
-212.734 -174.189 -31.2838
-212.734 -173.677 -31.2838
-212.734 -173.166 -31.2838
-212.734 -172.654 -31.2838
-212.734 -172.142 -31.2838
-212.734 -171.631 -31.2838
-212.734 -171.119 -31.2838
-212.734 -170.608 -31.2838
-212.734 -170.096 -31.2838
-212.734 -169.585 -31.2838
-212.734 -169.073 -31.2838
-212.734 -168.561 -31.2838
-212.734 -168.05 -31.2838
-212.734 -167.538 -31.2838
-212.734 -167.027 -31.2838
-212.734 -166.515 -31.2838
-212.734 -166.004 -31.2838
-212.734 -165.492 -31.2838
-212.734 -164.98 -31.2838
-212.734 -164.469 -31.2838
-212.734 -163.957 -31.2838
-212.734 -163.446 -31.2838
-212.734 -162.934 -31.2838
-212.734 -162.423 -31.2838
-212.734 -161.911 -31.2838
-212.734 -161.399 -31.2838
-212.734 -160.888 -31.2838
-212.734 -160.376 -31.2838
-212.734 -159.865 -31.2838
-212.734 -159.353 -31.2838
-212.734 -158.842 -31.2838
-212.734 -158.33 -31.2838
-212.734 -157.819 -31.2838
-212.734 -157.307 -31.2838
-212.734 -156.795 -31.2838
-212.734 -156.284 -31.2838
-212.734 -155.772 -31.2838
-212.734 -155.261 -31.2838
-212.734 -154.749 -31.2838
-212.734 -154.238 -31.2838
-212.734 -153.726 -31.2838
-212.734 -153.214 -31.2838
-212.734 -152.703 -31.2838
-212.734 -152.191 -31.2838
-212.734 -151.68 -31.2838
-212.734 -151.168 -31.2838
-212.734 -150.657 -31.2838
-212.734 -150.145 -31.2838
-212.734 -149.633 -31.2838
-212.734 -149.122 -31.2838
-212.734 -148.61 -31.2838
-212.734 -148.099 -31.2838
-212.734 -147.587 -31.2838
-212.734 -147.076 -31.2838
-212.734 -146.564 -31.2838
-212.734 -146.052 -31.2838
-212.734 -145.541 -31.2838
-212.734 -145.029 -31.2838
-212.734 -144.518 -31.2838
-212.734 -144.006 -31.2838
-207.669 -135.777 -31.1563
-207.669 -135.268 -31.1563
-182.95 144.05 -30.534
-182.95 144.549 -30.534
-182.95 145.049 -30.534
-182.95 145.548 -30.534
-182.95 146.047 -30.534
-182.95 146.547 -30.534
-182.95 147.046 -30.534
-182.95 147.545 -30.534
-182.95 148.044 -30.534
-182.95 148.544 -30.534
-182.95 149.043 -30.534
-182.95 149.542 -30.534
-182.95 150.042 -30.534
-182.95 150.541 -30.534
-182.95 151.04 -30.534
-182.95 151.54 -30.534
-182.95 152.039 -30.534
-182.95 152.538 -30.534
-182.95 153.038 -30.534
-182.95 153.537 -30.534
-182.95 154.036 -30.534
-182.95 154.535 -30.534
-182.95 155.035 -30.534
-182.95 155.534 -30.534
-182.95 156.033 -30.534
-182.95 156.533 -30.534
-182.95 157.032 -30.534
-182.95 157.531 -30.534
-182.95 158.031 -30.534
-182.95 158.53 -30.534
-182.95 159.029 -30.534
-182.95 159.528 -30.534
-182.95 160.028 -30.534
-178.124 160.883 -30.4126
-178.124 161.38 -30.4126
-178.124 161.878 -30.4126
-178.124 162.375 -30.4126
-178.124 162.872 -30.4126
-178.124 163.37 -30.4126
-178.124 163.867 -30.4126
-178.124 164.364 -30.4126
-178.124 164.862 -30.4126
-178.124 165.359 -30.4126
-178.124 165.856 -30.4126
-178.124 166.354 -30.4126
-178.124 166.851 -30.4126
-178.124 167.348 -30.4126
-178.124 167.846 -30.4126
-178.124 168.343 -30.4126
-178.124 168.84 -30.4126
-178.124 169.338 -30.4126
-178.124 169.835 -30.4126
-178.124 170.332 -30.4126
-178.124 170.829 -30.4126
-178.124 171.327 -30.4126
-178.124 171.824 -30.4126
-178.124 172.321 -30.4126
-178.124 172.819 -30.4126
-178.124 173.316 -30.4126
-178.124 173.813 -30.4126
-178.124 174.311 -30.4126
-178.124 174.808 -30.4126
-178.124 175.305 -30.4126
-178.124 175.803 -30.4126
-178.124 176.3 -30.4126
-178.124 176.797 -30.4126
-178.124 177.295 -30.4126
-178.124 177.792 -30.4126
-178.124 178.289 -30.4126
-178.124 178.787 -30.4126
-178.124 179.284 -30.4126
-178.124 179.781 -30.4126
-178.124 180.279 -30.4126
-178.124 180.776 -30.4126
-178.124 181.273 -30.4126
-178.124 181.771 -30.4126
-178.124 182.268 -30.4126
-178.124 182.765 -30.4126
-178.124 183.262 -30.4126
-178.124 183.76 -30.4126
-178.124 184.257 -30.4126
-178.124 184.754 -30.4126
-178.124 185.252 -30.4126
-178.124 185.749 -30.4126
-178.124 186.246 -30.4126
-178.124 186.744 -30.4126
-178.124 187.241 -30.4126
-178.124 187.738 -30.4126
-178.124 188.236 -30.4126
-178.124 188.733 -30.4126
-178.124 189.23 -30.4126
-178.124 189.728 -30.4126
-178.124 190.225 -30.4126
-178.124 190.722 -30.4126
-178.124 191.22 -30.4126
-178.124 191.717 -30.4126
-178.124 192.214 -30.4126
-178.124 192.712 -30.4126
-178.124 193.209 -30.4126
-178.124 193.706 -30.4126
-178.124 194.204 -30.4126
-178.124 194.701 -30.4126
-178.124 195.198 -30.4126
-178.124 195.695 -30.4126
-178.124 196.193 -30.4126
-178.124 196.69 -30.4126
-178.124 197.187 -30.4126
-178.124 197.685 -30.4126
-173.336 204.827 -30.292
-173.336 205.322 -30.292
-173.336 205.818 -30.292
-173.336 206.313 -30.292
-173.336 206.808 -30.292
-173.336 207.304 -30.292
-173.336 207.799 -30.292
-173.336 208.294 -30.292
-173.336 208.79 -30.292
-173.336 209.285 -30.292
-173.336 209.78 -30.292
-173.336 210.276 -30.292
-173.336 210.771 -30.292
-173.336 211.267 -30.292
-173.336 211.762 -30.292
-173.336 212.257 -30.292
-173.336 212.753 -30.292
-173.336 213.248 -30.292
-173.336 213.743 -30.292
-173.336 214.239 -30.292
-173.336 214.734 -30.292
-173.336 215.229 -30.292
-173.336 215.725 -30.292
-173.336 216.22 -30.292
-173.336 216.715 -30.292
-173.336 217.211 -30.292
-173.336 217.706 -30.292
-173.336 218.201 -30.292
-173.336 218.697 -30.292
-173.336 219.192 -30.292
-173.336 219.687 -30.292
-173.336 220.183 -30.292
-173.336 220.678 -30.292
-173.336 221.174 -30.292
-173.336 221.669 -30.292
-173.336 222.164 -30.292
-173.336 222.66 -30.292
-173.336 223.155 -30.292
-173.336 223.65 -30.292
-173.336 224.146 -30.292
-173.336 224.641 -30.292
-173.336 225.136 -30.292
-173.336 225.632 -30.292
-173.336 226.127 -30.292
-173.336 226.622 -30.292
-173.336 227.118 -30.292
-173.336 227.613 -30.292
-173.336 228.108 -30.292
-173.336 228.604 -30.292
-173.336 229.099 -30.292
-173.336 229.594 -30.292
-173.336 230.09 -30.292
-173.336 230.585 -30.292
-173.336 231.081 -30.292
-173.336 231.576 -30.292
-173.336 232.071 -30.292
-173.336 232.567 -30.292
-173.336 233.062 -30.292
-173.336 233.557 -30.292
-173.336 234.053 -30.292
-173.336 234.548 -30.292
-173.336 235.043 -30.292
-173.336 235.539 -30.292
-173.336 236.034 -30.292
-173.336 236.529 -30.292
-173.336 237.025 -30.292
-173.336 237.52 -30.292
-173.336 238.015 -30.292
-173.336 238.511 -30.292
-173.336 239.006 -30.292
-173.336 239.501 -30.292
-173.336 239.997 -30.292
-173.336 240.492 -30.292
-173.336 242.474 -30.292
-173.336 242.969 -30.292
-173.336 243.464 -30.292
-173.336 245.446 -30.292
-173.336 245.941 -30.292
-173.336 246.436 -30.292
-168.587 249.411 -30.1725
-168.587 249.904 -30.1725
-168.587 250.398 -30.1725
-168.587 250.891 -30.1725
-168.587 251.384 -30.1725
-168.587 252.865 -30.1725
-168.587 253.358 -30.1725
-168.587 253.851 -30.1725
-168.587 254.345 -30.1725
-168.587 254.838 -30.1725
-168.587 255.331 -30.1725
-168.587 255.825 -30.1725
-168.587 256.318 -30.1725
-168.587 256.812 -30.1725
-168.587 257.305 -30.1725
-168.587 257.798 -30.1725
-168.587 258.292 -30.1725
-168.587 258.785 -30.1725
-168.587 259.279 -30.1725
-168.587 259.772 -30.1725
-168.587 260.265 -30.1725
-168.587 260.759 -30.1725
-168.587 261.252 -30.1725
-168.587 261.746 -30.1725
-168.587 262.239 -30.1725
-168.587 262.732 -30.1725
-168.587 263.226 -30.1725
-168.587 263.719 -30.1725
-168.587 264.213 -30.1725
-168.587 264.706 -30.1725
-168.587 265.199 -30.1725
-168.587 265.693 -30.1725
-168.587 266.186 -30.1725
-168.587 266.68 -30.1725
-168.587 267.173 -30.1725
-168.587 267.666 -30.1725
-168.587 268.16 -30.1725
-168.587 268.653 -30.1725
-168.587 269.147 -30.1725
-168.587 269.64 -30.1725
-168.587 270.133 -30.1725
-168.587 270.627 -30.1725
-168.587 271.12 -30.1725
-168.587 271.614 -30.1725
-168.587 272.107 -30.1725
-168.587 272.6 -30.1725
-168.587 273.094 -30.1725
-168.587 273.587 -30.1725
-168.587 274.08 -30.1725
-168.587 274.574 -30.1725
-168.587 275.067 -30.1725
-168.587 275.561 -30.1725
-168.587 276.054 -30.1725
-168.587 276.547 -30.1725
-168.587 277.041 -30.1725
-168.587 277.534 -30.1725
-168.587 278.028 -30.1725
-168.587 278.521 -30.1725
-168.587 279.014 -30.1725
-168.587 279.508 -30.1725
-168.587 280.001 -30.1725
-168.587 280.495 -30.1725
-168.587 280.988 -30.1725
-168.587 281.481 -30.1725
-168.587 281.975 -30.1725
-168.587 282.468 -30.1725
-163.874 282.341 -30.0538
-163.874 282.832 -30.0538
-163.874 283.323 -30.0538
-163.874 285.289 -30.0538
-163.874 285.781 -30.0538
-127.468 -123.167 -29.1374
-127.468 -122.691 -29.1374
-127.468 -122.214 -29.1374
-127.468 -121.738 -29.1374
-127.468 -121.261 -29.1374
-123.073 -120.326 -29.0267
-123.073 -119.851 -29.0267
-123.073 -119.377 -29.0267
-123.073 -118.902 -29.0267
-123.073 -118.427 -29.0267
-123.073 78.556 -29.0267
-118.711 -117.034 -28.9169
-118.711 -116.561 -28.9169
-118.711 -116.088 -28.9169
-118.711 -115.615 -28.9169
-118.711 -115.142 -28.9169
-118.711 -114.669 -28.9169
-114.382 -112.824 -28.808
-114.382 -112.353 -28.808
-114.382 -111.882 -28.808
-114.382 -111.411 -28.808
-114.382 -110.94 -28.808
-114.382 -110.469 -28.808
-114.382 -109.997 -28.808
-114.382 -109.526 -28.808
-114.382 -109.055 -28.808
-114.382 -108.584 -28.808
-114.382 -107.171 -28.808
-114.382 -106.7 -28.808
-114.382 -106.229 -28.808
-114.382 -105.758 -28.808
-114.382 -105.287 -28.808
-114.382 -102.46 -28.808
-114.382 -101.989 -28.808
-114.382 -101.518 -28.808
-110.085 -104.422 -28.6998
-110.085 -103.953 -28.6998
-110.085 -103.483 -28.6998
-110.085 -103.014 -28.6998
-110.085 -102.545 -28.6998
-110.085 -100.668 -28.6998
-110.085 -100.198 -28.6998
-110.085 -99.7289 -28.6998
-110.085 -87.0574 -28.6998
-110.085 -86.5881 -28.6998
-110.085 -86.1188 -28.6998
-110.085 -85.6495 -28.6998
-110.085 -85.1802 -28.6998
-110.085 -84.7109 -28.6998
-110.085 -84.2416 -28.6998
-105.821 -91.8749 -28.5924
-105.821 -91.4074 -28.5924
-105.821 -90.9398 -28.5924
-105.821 -90.4723 -28.5924
-105.821 -90.0047 -28.5924
-105.821 -89.5372 -28.5924
-105.821 -89.0696 -28.5924
-105.821 -88.602 -28.5924
-105.821 -88.1345 -28.5924
-105.821 -87.6669 -28.5924
-105.821 -83.9265 -28.5924
-105.821 -83.4589 -28.5924
-84.9686 128.283 -28.0675
-84.9686 128.742 -28.0675
-80.8896 127.814 -27.9648
-76.8404 -78.1401 -27.8629
-76.8404 -77.6844 -27.8629
-72.8206 123.254 -27.7617
-72.8206 123.707 -27.7617
-72.8206 124.161 -27.7617
-68.8299 -74.8606 -27.6613
-68.8299 -74.4082 -27.6613
-68.8299 -73.9559 -27.6613
-68.8299 -73.5036 -27.6613
-68.8299 -73.0512 -27.6613
-68.8299 74.8606 -27.6613
-68.8299 75.3129 -27.6613
-68.8299 75.7652 -27.6613
-68.8299 76.2175 -27.6613
-68.8299 119.641 -27.6613
-68.8299 120.094 -27.6613
-68.8299 120.546 -27.6613
-68.8299 120.998 -27.6613
-68.8299 121.451 -27.6613
-68.8299 121.903 -27.6613
-68.8299 122.355 -27.6613
-68.8299 122.808 -27.6613
-64.868 -73.6892 -27.5615
-64.868 -73.2385 -27.5615
-64.868 -72.7878 -27.5615
-64.868 -72.3371 -27.5615
-64.868 -71.8864 -27.5615
-64.868 -71.4358 -27.5615
-64.868 -70.9851 -27.5615
-64.868 75.0413 -27.5615
-64.868 75.492 -27.5615
-64.868 75.9427 -27.5615
-64.868 76.3934 -27.5615
-64.868 76.8441 -27.5615
-64.868 77.2948 -27.5615
-64.868 111.999 -27.5615
-64.868 112.449 -27.5615
-64.868 112.9 -27.5615
-64.868 113.351 -27.5615
-64.868 113.801 -27.5615
-64.868 114.252 -27.5615
-64.868 114.703 -27.5615
-64.868 115.154 -27.5615
-64.868 115.604 -27.5615
-64.868 116.055 -27.5615
-64.868 116.506 -27.5615
-64.868 116.956 -27.5615
-64.868 117.407 -27.5615
-64.868 117.858 -27.5615
-64.868 118.308 -27.5615
-64.868 118.759 -27.5615
-64.868 119.21 -27.5615
-60.9345 -71.1791 -27.4625
-60.9345 -70.73 -27.4625
-60.9345 -70.2809 -27.4625
-60.9345 -69.8319 -27.4625
-60.9345 -69.3828 -27.4625
-60.9345 -68.9337 -27.4625
-60.9345 -68.4846 -27.4625
-60.9345 -68.0356 -27.4625
-60.9345 -67.5865 -27.4625
-60.9345 -67.1374 -27.4625
-60.9345 71.1791 -27.4625
-60.9345 71.6282 -27.4625
-60.9345 72.0773 -27.4625
-60.9345 72.5263 -27.4625
-60.9345 76.5681 -27.4625
-60.9345 77.0171 -27.4625
-60.9345 77.4662 -27.4625
-60.9345 77.9153 -27.4625
-60.9345 78.3644 -27.4625
-60.9345 78.8135 -27.4625
-60.9345 79.2625 -27.4625
-60.9345 79.7116 -27.4625
-60.9345 80.1607 -27.4625
-60.9345 80.6098 -27.4625
-60.9345 81.0589 -27.4625
-60.9345 81.5079 -27.4625
-60.9345 81.957 -27.4625
-60.9345 82.4061 -27.4625
-60.9345 82.8552 -27.4625
-60.9345 83.3043 -27.4625
-60.9345 83.7533 -27.4625
-60.9345 84.2024 -27.4625
-60.9345 84.6515 -27.4625
-60.9345 85.1006 -27.4625
-60.9345 86.8969 -27.4625
-60.9345 87.346 -27.4625
-60.9345 87.7951 -27.4625
-60.9345 88.2441 -27.4625
-60.9345 88.6932 -27.4625
-60.9345 89.1423 -27.4625
-60.9345 89.5914 -27.4625
-60.9345 90.0404 -27.4625
-60.9345 90.4895 -27.4625
-60.9345 90.9386 -27.4625
-60.9345 91.3877 -27.4625
-60.9345 105.309 -27.4625
-60.9345 105.758 -27.4625
-60.9345 106.207 -27.4625
-60.9345 106.656 -27.4625
-60.9345 107.105 -27.4625
-60.9345 107.555 -27.4625
-60.9345 108.004 -27.4625
-60.9345 108.453 -27.4625
-60.9345 108.902 -27.4625
-60.9345 109.351 -27.4625
-60.9345 109.8 -27.4625
-60.9345 110.249 -27.4625
-60.9345 110.698 -27.4625
-60.9345 111.147 -27.4625
-60.9345 111.596 -27.4625
-60.9345 112.045 -27.4625
-60.9345 113.842 -27.4625
-57.0292 -66.8971 -27.3642
-57.0292 -66.4496 -27.3642
-57.0292 -66.0021 -27.3642
-57.0292 -65.5546 -27.3642
-57.0292 -65.1072 -27.3642
-57.0292 -64.6597 -27.3642
-57.0292 -64.2122 -27.3642
-57.0292 -63.7648 -27.3642
-57.0292 70.4768 -27.3642
-57.0292 70.9243 -27.3642
-57.0292 83.901 -27.3642
-57.0292 84.3485 -27.3642
-57.0292 84.7959 -27.3642
-57.0292 85.2434 -27.3642
-57.0292 85.6909 -27.3642
-57.0292 86.1383 -27.3642
-57.0292 86.5858 -27.3642
-57.0292 87.0333 -27.3642
-57.0292 88.8232 -27.3642
-57.0292 89.2707 -27.3642
-57.0292 89.7181 -27.3642
-57.0292 90.1656 -27.3642
-57.0292 90.6131 -27.3642
-57.0292 91.0605 -27.3642
-57.0292 91.508 -27.3642
-57.0292 91.9555 -27.3642
-57.0292 92.403 -27.3642
-57.0292 93.7454 -27.3642
-57.0292 94.1928 -27.3642
-57.0292 94.6403 -27.3642
-57.0292 95.0878 -27.3642
-57.0292 95.5353 -27.3642
-57.0292 95.9827 -27.3642
-57.0292 96.4302 -27.3642
-57.0292 96.8777 -27.3642
-57.0292 97.3251 -27.3642
-57.0292 97.7726 -27.3642
-57.0292 98.2201 -27.3642
-57.0292 98.6676 -27.3642
-57.0292 99.115 -27.3642
-57.0292 99.5625 -27.3642
-57.0292 100.01 -27.3642
-57.0292 100.457 -27.3642
-57.0292 100.905 -27.3642
-57.0292 101.352 -27.3642
-57.0292 101.8 -27.3642
-57.0292 102.247 -27.3642
-57.0292 102.695 -27.3642
-57.0292 103.142 -27.3642
-57.0292 103.59 -27.3642
-57.0292 104.037 -27.3642
-57.0292 104.485 -27.3642
-57.0292 105.38 -27.3642
-57.0292 105.827 -27.3642
-57.0292 106.275 -27.3642
-53.1518 -63.0914 -27.2666
-53.1518 -62.6456 -27.2666
-53.1518 -62.1997 -27.2666
-53.1518 -61.7538 -27.2666
-53.1518 -61.3079 -27.2666
-53.1518 -60.862 -27.2666
-53.1518 -60.4162 -27.2666
-53.1518 -59.9703 -27.2666
-53.1518 -59.5244 -27.2666
-53.1518 -59.0785 -27.2666
-53.1518 -58.6327 -27.2666
-53.1518 -58.1868 -27.2666
-53.1518 -57.7409 -27.2666
-53.1518 -57.295 -27.2666
-53.1518 -56.8492 -27.2666
-53.1518 -56.4033 -27.2666
-53.1518 -55.9574 -27.2666
-53.1518 -55.5115 -27.2666
-53.1518 -55.0657 -27.2666
-53.1518 65.7667 -27.2666
-53.1518 66.2126 -27.2666
-53.1518 66.6584 -27.2666
-49.3019 -57.5357 -27.1697
-49.3019 -57.0914 -27.1697
-49.3019 -56.6471 -27.1697
-49.3019 -56.2028 -27.1697
-49.3019 -55.7585 -27.1697
-49.3019 -55.3142 -27.1697
-49.3019 -54.8699 -27.1697
-49.3019 -54.4256 -27.1697
-49.3019 -53.9814 -27.1697
-49.3019 -53.5371 -27.1697
-49.3019 -53.0928 -27.1697
-49.3019 -52.6485 -27.1697
-49.3019 -52.2042 -27.1697
-49.3019 -51.7599 -27.1697
-49.3019 -51.3156 -27.1697
-49.3019 -50.8713 -27.1697
-49.3019 -50.427 -27.1697
-49.3019 -49.9827 -27.1697
-49.3019 -49.5384 -27.1697
-49.3019 -49.0942 -27.1697
-49.3019 -48.6499 -27.1697
-49.3019 57.0914 -27.1697
-49.3019 57.98 -27.1697
-49.3019 58.8686 -27.1697
-49.3019 63.3115 -27.1697
-49.3019 65.0886 -27.1697
-49.3019 65.5329 -27.1697
-49.3019 65.9772 -27.1697
-45.4793 -51.1339 -27.0734
-45.4793 -50.6911 -27.0734
-45.4793 -50.2484 -27.0734
-45.4793 -48.9203 -27.0734
-45.4793 -48.4776 -27.0734
-45.4793 -48.0348 -27.0734
-45.4793 -47.5921 -27.0734
-45.4793 -47.1494 -27.0734
-45.4793 -46.7067 -27.0734
-45.4793 -46.264 -27.0734
-45.4793 -45.8213 -27.0734
-45.4793 -45.3785 -27.0734
-45.4793 -44.9358 -27.0734
-45.4793 -44.4931 -27.0734
-45.4793 -44.0504 -27.0734
-45.4793 -43.6077 -27.0734
-45.4793 -43.165 -27.0734
-45.4793 -42.7222 -27.0734
-45.4793 -42.2795 -27.0734
-45.4793 -41.8368 -27.0734
-45.4793 -41.3941 -27.0734
-45.4793 -40.9514 -27.0734
-45.4793 -40.5086 -27.0734
-45.4793 -40.0659 -27.0734
-45.4793 -39.6232 -27.0734
-45.4793 -39.1805 -27.0734
-45.4793 -38.7378 -27.0734
-45.4793 -38.2951 -27.0734
-45.4793 -37.8523 -27.0734
-45.4793 -37.4096 -27.0734
-45.4793 -36.9669 -27.0734
-45.4793 -36.5242 -27.0734
-45.4793 -36.0815 -27.0734
-45.4793 56.8892 -27.0734
-45.4793 59.1028 -27.0734
-45.4793 59.5455 -27.0734
-45.4793 63.53 -27.0734
-41.6837 -36.3953 -26.9779
-41.6837 -35.9541 -26.9779
-41.6837 -35.513 -26.9779
-41.6837 -35.0718 -26.9779
-41.6837 -34.6307 -26.9779
-41.6837 -34.1895 -26.9779
-41.6837 -33.7484 -26.9779
-41.6837 -33.3072 -26.9779
-41.6837 -32.866 -26.9779
-41.6837 -32.4249 -26.9779
-41.6837 -31.9837 -26.9779
-41.6837 -31.5426 -26.9779
-41.6837 -31.1014 -26.9779
-41.6837 -30.6603 -26.9779
-41.6837 -30.2191 -26.9779
-41.6837 -29.778 -26.9779
-41.6837 -29.3368 -26.9779
-41.6837 -28.8957 -26.9779
-41.6837 -28.4545 -26.9779
-41.6837 -28.0133 -26.9779
-41.6837 -27.5722 -26.9779
-41.6837 -27.131 -26.9779
-41.6837 -26.6899 -26.9779
-41.6837 -26.2487 -26.9779
-41.6837 -25.8076 -26.9779
-41.6837 -25.3664 -26.9779
-41.6837 -24.9253 -26.9779
-41.6837 -24.4841 -26.9779
-41.6837 -24.0429 -26.9779
-41.6837 -23.6018 -26.9779
-41.6837 -23.1606 -26.9779
-41.6837 -22.7195 -26.9779
-41.6837 -22.2783 -26.9779
-41.6837 -21.8372 -26.9779
-41.6837 -21.396 -26.9779
-41.6837 -19.1902 -26.9779
-41.6837 -18.7491 -26.9779
-41.6837 -18.3079 -26.9779
-41.6837 -17.8668 -26.9779
-41.6837 59.3353 -26.9779
-41.6837 59.7765 -26.9779
-41.6837 60.2177 -26.9779
-41.6837 60.6588 -26.9779
-37.9147 -27.0356 -26.883
-37.9147 -26.596 -26.883
-37.9147 -26.1564 -26.883
-37.9147 -25.7168 -26.883
-37.9147 -25.2772 -26.883
-37.9147 -24.8376 -26.883
-37.9147 -24.398 -26.883
-37.9147 -23.9584 -26.883
-37.9147 -23.5188 -26.883
-37.9147 -23.0792 -26.883
-37.9147 -22.6396 -26.883
-37.9147 -22.2 -26.883
-37.9147 -21.7604 -26.883
-37.9147 -21.3208 -26.883
-37.9147 -20.8812 -26.883
-37.9147 -20.4416 -26.883
-37.9147 -20.002 -26.883
-37.9147 -19.5624 -26.883
-37.9147 -19.1228 -26.883
-37.9147 -18.6832 -26.883
-37.9147 -18.2435 -26.883
-37.9147 52.9722 -26.883
-37.9147 53.4118 -26.883
-37.9147 57.3683 -26.883
-37.9147 57.8079 -26.883
-34.1722 -16.8654 -26.7888
-34.1722 -16.4274 -26.7888
-34.1722 -15.9893 -26.7888
-34.1722 -15.5512 -26.7888
-34.1722 -15.1132 -26.7888
-34.1722 -14.6751 -26.7888
-34.1722 -14.237 -26.7888
-34.1722 -13.799 -26.7888
-34.1722 -13.3609 -26.7888
-34.1722 -12.9229 -26.7888
-34.1722 -12.4848 -26.7888
-34.1722 -12.0467 -26.7888
-34.1722 -11.6087 -26.7888
-34.1722 -11.1706 -26.7888
-34.1722 -10.7325 -26.7888
-34.1722 -10.2945 -26.7888
-34.1722 -9.85642 -26.7888
-34.1722 -9.41835 -26.7888
-34.1722 -8.98029 -26.7888
-34.1722 -8.54223 -26.7888
-34.1722 -8.10416 -26.7888
-34.1722 -7.6661 -26.7888
-34.1722 -7.22804 -26.7888
-34.1722 -6.78998 -26.7888
-34.1722 -6.35191 -26.7888
-34.1722 -5.91385 -26.7888
-34.1722 -2.84741 -26.7888
-34.1722 -2.40935 -26.7888
-34.1722 -1.97128 -26.7888
-34.1722 51.4724 -26.7888
-34.1722 51.9105 -26.7888
-34.1722 52.3485 -26.7888
-34.1722 52.7866 -26.7888
-34.1722 53.2246 -26.7888
-34.1722 53.6627 -26.7888
-34.1722 54.1008 -26.7888
-30.4559 -15.9335 -26.6953
-30.4559 -15.4969 -26.6953
-30.4559 -7.63933 -26.6953
-30.4559 -7.2028 -26.6953
-30.4559 -6.76626 -26.6953
-30.4559 -6.32973 -26.6953
-30.4559 -5.8932 -26.6953
-30.4559 -5.45666 -26.6953
-30.4559 -5.02013 -26.6953
-30.4559 -4.5836 -26.6953
-30.4559 -4.14706 -26.6953
-30.4559 -3.71053 -26.6953
-30.4559 -3.274 -26.6953
-30.4559 -2.83747 -26.6953
-30.4559 -2.40093 -26.6953
-30.4559 -1.9644 -26.6953
-30.4559 -1.52787 -26.6953
-30.4559 -1.09133 -26.6953
-30.4559 -0.6548 -26.6953
-30.4559 -0.218267 -26.6953
-30.4559 0.218267 -26.6953
-30.4559 0.6548 -26.6953
-30.4559 1.09133 -26.6953
-30.4559 1.52787 -26.6953
-30.4559 1.9644 -26.6953
-30.4559 2.40093 -26.6953
-30.4559 2.83747 -26.6953
-30.4559 3.274 -26.6953
-30.4559 3.71053 -26.6953
-30.4559 4.14706 -26.6953
-30.4559 4.5836 -26.6953
-30.4559 5.02013 -26.6953
-30.4559 5.45666 -26.6953
-30.4559 5.8932 -26.6953
-30.4559 6.32973 -26.6953
-30.4559 6.76626 -26.6953
-30.4559 7.2028 -26.6953
-30.4559 7.63933 -26.6953
-30.4559 8.07586 -26.6953
-30.4559 8.5124 -26.6953
-30.4559 8.94893 -26.6953
-30.4559 9.38546 -26.6953
-30.4559 9.82199 -26.6953
-30.4559 14.6239 -26.6953
-30.4559 15.0604 -26.6953
-30.4559 15.4969 -26.6953
-30.4559 15.9335 -26.6953
-30.4559 16.37 -26.6953
-30.4559 16.8065 -26.6953
-30.4559 27.7199 -26.6953
-30.4559 28.1564 -26.6953
-30.4559 28.5929 -26.6953
-30.4559 29.9025 -26.6953
-30.4559 30.3391 -26.6953
-30.4559 30.7756 -26.6953
-30.4559 31.2121 -26.6953
-30.4559 31.6487 -26.6953
-30.4559 32.0852 -26.6953
-30.4559 32.5217 -26.6953
-30.4559 32.9582 -26.6953
-30.4559 33.3948 -26.6953
-30.4559 33.8313 -26.6953
-30.4559 34.2678 -26.6953
-30.4559 43.435 -26.6953
-30.4559 43.8716 -26.6953
-30.4559 46.0542 -26.6953
-30.4559 46.4908 -26.6953
-30.4559 46.9273 -26.6953
-30.4559 47.3638 -26.6953
-30.4559 47.8004 -26.6953
-30.4559 48.2369 -26.6953
-30.4559 48.6734 -26.6953
-30.4559 49.11 -26.6953
-30.4559 49.5465 -26.6953
-30.4559 49.983 -26.6953
-30.4559 50.4196 -26.6953
-30.4559 50.8561 -26.6953
-30.4559 51.2926 -26.6953
-30.4559 51.7292 -26.6953
-30.4559 52.1657 -26.6953
-26.7654 2.39258 -26.6023
-26.7654 2.82759 -26.6023
-26.7654 3.2626 -26.6023
-26.7654 3.69762 -26.6023
-26.7654 4.13263 -26.6023
-26.7654 4.56765 -26.6023
-26.7654 5.00266 -26.6023
-26.7654 5.43767 -26.6023
-26.7654 5.87269 -26.6023
-26.7654 6.3077 -26.6023
-26.7654 6.74272 -26.6023
-26.7654 7.17773 -26.6023
-26.7654 7.61274 -26.6023
-26.7654 8.04776 -26.6023
-26.7654 8.48277 -26.6023
-26.7654 8.91779 -26.6023
-26.7654 9.3528 -26.6023
-26.7654 9.78781 -26.6023
-26.7654 10.2228 -26.6023
-26.7654 10.6578 -26.6023
-26.7654 11.0929 -26.6023
-26.7654 11.5279 -26.6023
-26.7654 11.9629 -26.6023
-26.7654 12.3979 -26.6023
-26.7654 12.8329 -26.6023
-26.7654 13.2679 -26.6023
-26.7654 13.7029 -26.6023
-26.7654 14.138 -26.6023
-26.7654 14.573 -26.6023
-26.7654 15.008 -26.6023
-26.7654 15.443 -26.6023
-26.7654 15.878 -26.6023
-26.7654 16.313 -26.6023
-26.7654 16.748 -26.6023
-26.7654 17.183 -26.6023
-26.7654 17.6181 -26.6023
-26.7654 18.0531 -26.6023
-26.7654 18.4881 -26.6023
-26.7654 18.9231 -26.6023
-26.7654 19.3581 -26.6023
-26.7654 19.7931 -26.6023
-26.7654 20.2281 -26.6023
-26.7654 20.6632 -26.6023
-26.7654 21.0982 -26.6023
-26.7654 21.5332 -26.6023
-26.7654 21.9682 -26.6023
-26.7654 22.4032 -26.6023
-26.7654 22.8382 -26.6023
-26.7654 23.2732 -26.6023
-26.7654 23.7083 -26.6023
-26.7654 24.1433 -26.6023
-26.7654 24.5783 -26.6023
-26.7654 25.0133 -26.6023
-26.7654 25.4483 -26.6023
-26.7654 25.8833 -26.6023
-26.7654 28.0584 -26.6023
-26.7654 30.2335 -26.6023
-26.7654 30.6685 -26.6023
-26.7654 31.1035 -26.6023
-26.7654 31.5385 -26.6023
-26.7654 31.9735 -26.6023
-26.7654 32.4085 -26.6023
-26.7654 32.8436 -26.6023
-26.7654 33.2786 -26.6023
-26.7654 33.7136 -26.6023
-26.7654 34.1486 -26.6023
-26.7654 34.5836 -26.6023
-26.7654 35.0186 -26.6023
-26.7654 35.4536 -26.6023
-26.7654 35.8886 -26.6023
-26.7654 36.3237 -26.6023
-26.7654 36.7587 -26.6023
-26.7654 37.1937 -26.6023
-26.7654 37.6287 -26.6023
-26.7654 38.0637 -26.6023
-26.7654 38.4987 -26.6023
-26.7654 38.9337 -26.6023
-26.7654 39.3688 -26.6023
-26.7654 39.8038 -26.6023
-26.7654 40.2388 -26.6023
-26.7654 40.6738 -26.6023
-26.7654 41.1088 -26.6023
-26.7654 41.5438 -26.6023
-26.7654 43.7189 -26.6023
-26.7654 44.1539 -26.6023
-26.7654 44.5889 -26.6023
-26.7654 45.0239 -26.6023
-26.7654 45.459 -26.6023
-26.7654 45.894 -26.6023
-26.7654 46.329 -26.6023
-26.7654 46.764 -26.6023
-26.7654 47.199 -26.6023
-26.7654 47.634 -26.6023
-26.7654 48.069 -26.6023
-26.7654 48.5041 -26.6023
-26.7654 48.9391 -26.6023
-26.7654 49.3741 -26.6023
-26.7654 49.8091 -26.6023
-26.7654 50.2441 -26.6023
-23.1004 13.6554 -26.5101
-23.1004 14.0889 -26.5101
-23.1004 17.1235 -26.5101
-23.1004 17.557 -26.5101
-23.1004 17.9905 -26.5101
-23.1004 20.5915 -26.5101
-23.1004 21.025 -26.5101
-23.1004 21.4585 -26.5101
-23.1004 21.892 -26.5101
-23.1004 22.3255 -26.5101
-23.1004 22.759 -26.5101
-23.1004 23.1925 -26.5101
-23.1004 23.626 -26.5101
-23.1004 24.0595 -26.5101
-23.1004 24.493 -26.5101
-23.1004 24.9266 -26.5101
-23.1004 25.3601 -26.5101
-23.1004 25.7936 -26.5101
-23.1004 26.2271 -26.5101
-15.8464 16.575 -26.3275
90.8901 -53.1549 -23.6406
1738.02 4.809 21.3879
4979.6 202.417 119.31
-2231.06 -277.206 -98.5102
-2231.06 -275.864 -98.5102
-2231.06 -274.522 -98.5102
-2196.41 -275.589 -97.4635
-2196.41 -274.261 -97.4635
-2196.41 -272.933 -97.4635
-2162.49 -272.692 -96.4388
-219.024 -300.01 -37.7306
-219.024 -299.496 -37.7306
-219.024 -298.982 -37.7306
-219.024 -298.468 -37.7306
-219.024 -297.954 -37.7306
-219.024 -297.44 -37.7306
-219.024 -296.925 -37.7306
-219.024 -296.411 -37.7306
-219.024 -295.897 -37.7306
-219.024 -295.383 -37.7306
-219.024 -294.869 -37.7306
-219.024 -294.355 -37.7306
-219.024 -293.841 -37.7306
-219.024 -293.326 -37.7306
-219.024 -292.812 -37.7306
-219.024 -292.298 -37.7306
-219.024 -291.784 -37.7306
-219.024 -291.27 -37.7306
-219.024 -290.756 -37.7306
-219.024 -290.241 -37.7306
-219.024 -289.727 -37.7306
-219.024 -289.213 -37.7306
-219.024 -288.699 -37.7306
-219.024 -288.185 -37.7306
-219.024 -287.671 -37.7306
-219.024 -287.157 -37.7306
-219.024 -286.642 -37.7306
-219.024 -286.128 -37.7306
-219.024 -285.614 -37.7306
-219.024 -285.1 -37.7306
-219.024 -284.586 -37.7306
-219.024 -284.072 -37.7306
-219.024 -283.557 -37.7306
-219.024 -283.043 -37.7306
-219.024 -282.529 -37.7306
-219.024 -282.015 -37.7306
-219.024 -281.501 -37.7306
-219.024 -280.987 -37.7306
-219.024 -280.472 -37.7306
-219.024 -279.958 -37.7306
-219.024 -279.444 -37.7306
-219.024 -278.93 -37.7306
-219.024 -278.416 -37.7306
-219.024 -277.902 -37.7306
-219.024 -277.388 -37.7306
-219.024 -276.873 -37.7306
-219.024 -276.359 -37.7306
-219.024 -275.845 -37.7306
-219.024 -275.331 -37.7306
-219.024 -274.817 -37.7306
-219.024 -274.303 -37.7306
-219.024 -273.788 -37.7306
-219.024 -273.274 -37.7306
-219.024 -272.76 -37.7306
-219.024 -272.246 -37.7306
-219.024 -271.732 -37.7306
-219.024 -271.218 -37.7306
-219.024 -270.703 -37.7306
-219.024 -270.189 -37.7306
-219.024 -269.675 -37.7306
-219.024 -269.161 -37.7306
-219.024 -268.647 -37.7306
-219.024 -268.133 -37.7306
-219.024 -267.619 -37.7306
-219.024 -267.104 -37.7306
-219.024 -266.59 -37.7306
-219.024 -266.076 -37.7306
-219.024 -264.019 -37.7306
-219.024 -263.505 -37.7306
-219.024 -262.991 -37.7306
-219.024 -262.477 -37.7306
-213.908 -239.384 -37.576
-213.908 -238.872 -37.576
-213.908 -238.36 -37.576
-213.908 -237.847 -37.576
-213.908 -237.335 -37.576
-213.908 -236.823 -37.576
-213.908 -236.311 -37.576
-213.908 -235.799 -37.576
-213.908 -235.287 -37.576
-213.908 -234.775 -37.576
-213.908 -234.263 -37.576
-213.908 -233.751 -37.576
-213.908 -233.239 -37.576
-213.908 -232.727 -37.576
-213.908 -232.215 -37.576
-213.908 -231.703 -37.576
-213.908 -231.191 -37.576
-213.908 -230.679 -37.576
-213.908 -230.167 -37.576
-213.908 -229.655 -37.576
-213.908 -229.143 -37.576
-213.908 -228.631 -37.576
-213.908 -228.118 -37.576
-213.908 -227.606 -37.576
-213.908 -227.094 -37.576
-213.908 -226.582 -37.576
-213.908 -226.07 -37.576
-213.908 -225.558 -37.576
-213.908 -225.046 -37.576
-213.908 -224.534 -37.576
-213.908 -224.022 -37.576
-213.908 -223.51 -37.576
-213.908 -222.998 -37.576
-213.908 -222.486 -37.576
-213.908 -221.974 -37.576
-213.908 -221.462 -37.576
-213.908 -220.95 -37.576
-213.908 -220.438 -37.576
-213.908 -219.926 -37.576
-213.908 -219.414 -37.576
-213.908 -218.902 -37.576
-213.908 -218.39 -37.576
-213.908 -217.877 -37.576
-213.908 -217.365 -37.576
-213.908 -216.853 -37.576
-213.908 -216.341 -37.576
-213.908 -215.829 -37.576
-213.908 -215.317 -37.576
-213.908 -214.805 -37.576
-213.908 -214.293 -37.576
-213.908 -213.781 -37.576
-213.908 -213.269 -37.576
-213.908 -212.757 -37.576
-213.908 -212.245 -37.576
-213.908 -211.733 -37.576
-213.908 -211.221 -37.576
-213.908 -210.709 -37.576
-213.908 -210.197 -37.576
-213.908 -209.685 -37.576
-213.908 -209.173 -37.576
-213.908 -208.661 -37.576
-213.908 -208.149 -37.576
-213.908 -207.636 -37.576
-213.908 -207.124 -37.576
-213.908 -206.612 -37.576
-213.908 -206.1 -37.576
-213.908 -205.588 -37.576
-213.908 -205.076 -37.576
-213.908 -204.564 -37.576
-213.908 -204.052 -37.576
-213.908 -203.54 -37.576
-213.908 -203.028 -37.576
-213.908 -202.516 -37.576
-213.908 -202.004 -37.576
-213.908 -201.492 -37.576
-213.908 -200.98 -37.576
-213.908 -200.468 -37.576
-213.908 -199.956 -37.576
-213.908 -199.444 -37.576
-213.908 -198.932 -37.576
-213.908 -198.42 -37.576
-213.908 -197.908 -37.576
-213.908 -195.859 -37.576
-213.908 -195.347 -37.576
-213.908 -194.835 -37.576
-208.833 -180.781 -37.4227
-208.833 -180.271 -37.4227
-208.833 -179.761 -37.4227
-208.833 -179.251 -37.4227
-208.833 -178.741 -37.4227
-208.833 -178.232 -37.4227
-208.833 -177.722 -37.4227
-208.833 -177.212 -37.4227
-208.833 -176.702 -37.4227
-208.833 -176.192 -37.4227
-208.833 -175.682 -37.4227
-208.833 -175.172 -37.4227
-208.833 -174.662 -37.4227
-208.833 -174.152 -37.4227
-208.833 -173.642 -37.4227
-208.833 -173.132 -37.4227
-208.833 -172.622 -37.4227
-208.833 -172.112 -37.4227
-208.833 -171.602 -37.4227
-208.833 -171.092 -37.4227
-208.833 -170.582 -37.4227
-208.833 -170.072 -37.4227
-208.833 -169.562 -37.4227
-208.833 -169.052 -37.4227
-208.833 -168.542 -37.4227
-208.833 -168.032 -37.4227
-208.833 -167.522 -37.4227
-208.833 -167.012 -37.4227
-208.833 -166.502 -37.4227
-208.833 -165.992 -37.4227
-208.833 -165.483 -37.4227
-208.833 -164.973 -37.4227
-208.833 -164.463 -37.4227
-208.833 -163.953 -37.4227
-208.833 -163.443 -37.4227
-208.833 -162.933 -37.4227
-208.833 -162.423 -37.4227
-208.833 -161.913 -37.4227
-208.833 -161.403 -37.4227
-208.833 -160.893 -37.4227
-208.833 -160.383 -37.4227
-208.833 -159.873 -37.4227
-208.833 -159.363 -37.4227
-208.833 -158.853 -37.4227
-208.833 -158.343 -37.4227
-208.833 -157.833 -37.4227
-208.833 -157.323 -37.4227
-208.833 -156.813 -37.4227
-208.833 -156.303 -37.4227
-208.833 -155.793 -37.4227
-208.833 -155.283 -37.4227
-208.833 -154.773 -37.4227
-208.833 -154.263 -37.4227
-208.833 -153.753 -37.4227
-208.833 -153.243 -37.4227
-208.833 -152.733 -37.4227
-208.833 -152.224 -37.4227
-208.833 -151.714 -37.4227
-208.833 -151.204 -37.4227
-208.833 -150.694 -37.4227
-208.833 -150.184 -37.4227
-208.833 -149.674 -37.4227
-208.833 -149.164 -37.4227
-208.833 -148.654 -37.4227
-208.833 -148.144 -37.4227
-208.833 -147.634 -37.4227
-208.833 -147.124 -37.4227
-208.833 -146.614 -37.4227
-208.833 -146.104 -37.4227
-208.833 -143.554 -37.4227
-208.833 -143.044 -37.4227
-208.833 -142.534 -37.4227
-208.833 -133.865 -37.4227
-179.233 82.3821 -36.5286
-179.233 143.111 -36.5286
-179.233 143.609 -36.5286
-179.233 144.106 -36.5286
-179.233 144.604 -36.5286
-179.233 145.102 -36.5286
-179.233 145.6 -36.5286
-179.233 146.097 -36.5286
-179.233 146.595 -36.5286
-179.233 147.093 -36.5286
-179.233 147.591 -36.5286
-179.233 148.089 -36.5286
-179.233 148.586 -36.5286
-179.233 149.084 -36.5286
-179.233 149.582 -36.5286
-179.233 150.08 -36.5286
-179.233 150.577 -36.5286
-179.233 151.075 -36.5286
-179.233 151.573 -36.5286
-179.233 152.071 -36.5286
-179.233 152.569 -36.5286
-179.233 153.066 -36.5286
-179.233 153.564 -36.5286
-179.233 154.062 -36.5286
-179.233 154.56 -36.5286
-179.233 155.057 -36.5286
-179.233 155.555 -36.5286
-179.233 156.053 -36.5286
-179.233 156.551 -36.5286
-179.233 157.049 -36.5286
-179.233 157.546 -36.5286
-179.233 158.044 -36.5286
-179.233 158.542 -36.5286
-179.233 160.533 -36.5286
-179.233 161.031 -36.5286
-179.233 161.529 -36.5286
-179.233 162.026 -36.5286
-179.233 162.524 -36.5286
-179.233 163.022 -36.5286
-179.233 164.515 -36.5286
-179.233 165.013 -36.5286
-179.233 165.511 -36.5286
-179.233 166.009 -36.5286
-174.437 166.342 -36.3837
-174.437 166.838 -36.3837
-174.437 167.333 -36.3837
-174.437 167.829 -36.3837
-174.437 168.325 -36.3837
-174.437 168.821 -36.3837
-174.437 169.317 -36.3837
-174.437 169.812 -36.3837
-174.437 170.308 -36.3837
-174.437 170.804 -36.3837
-174.437 171.3 -36.3837
-174.437 171.796 -36.3837
-174.437 172.291 -36.3837
-174.437 172.787 -36.3837
-174.437 173.283 -36.3837
-174.437 173.779 -36.3837
-174.437 174.275 -36.3837
-174.437 174.77 -36.3837
-174.437 175.266 -36.3837
-174.437 175.762 -36.3837
-174.437 176.258 -36.3837
-174.437 176.754 -36.3837
-174.437 177.249 -36.3837
-174.437 177.745 -36.3837
-174.437 178.241 -36.3837
-174.437 178.737 -36.3837
-174.437 179.233 -36.3837
-174.437 179.728 -36.3837
-174.437 180.224 -36.3837
-174.437 180.72 -36.3837
-174.437 181.216 -36.3837
-174.437 181.712 -36.3837
-174.437 182.207 -36.3837
-174.437 182.703 -36.3837
-174.437 183.199 -36.3837
-174.437 183.695 -36.3837
-174.437 184.191 -36.3837
-174.437 184.686 -36.3837
-174.437 185.182 -36.3837
-174.437 185.678 -36.3837
-174.437 186.174 -36.3837
-174.437 186.67 -36.3837
-174.437 187.165 -36.3837
-174.437 187.661 -36.3837
-174.437 188.157 -36.3837
-174.437 188.653 -36.3837
-174.437 189.149 -36.3837
-174.437 189.644 -36.3837
-174.437 190.14 -36.3837
-174.437 190.636 -36.3837
-174.437 191.132 -36.3837
-174.437 191.628 -36.3837
-174.437 192.123 -36.3837
-174.437 192.619 -36.3837
-174.437 193.115 -36.3837
-174.437 193.611 -36.3837
-174.437 194.107 -36.3837
-174.437 194.602 -36.3837
-174.437 195.098 -36.3837
-174.437 195.594 -36.3837
-174.437 196.09 -36.3837
-174.437 196.586 -36.3837
-174.437 197.081 -36.3837
-174.437 197.577 -36.3837
-174.437 198.073 -36.3837
-174.437 198.569 -36.3837
-174.437 199.065 -36.3837
-174.437 199.56 -36.3837
-174.437 200.056 -36.3837
-174.437 200.552 -36.3837
-174.437 201.048 -36.3837
-174.437 201.544 -36.3837
-174.437 202.039 -36.3837
-174.437 202.535 -36.3837
-174.437 203.031 -36.3837
-174.437 203.527 -36.3837
-174.437 204.023 -36.3837
-174.437 204.519 -36.3837
-174.437 205.014 -36.3837
-174.437 205.51 -36.3837
-174.437 206.998 -36.3837
-174.437 207.493 -36.3837
-174.437 207.989 -36.3837
-174.437 209.972 -36.3837
-174.437 210.468 -36.3837
-169.678 214.081 -36.2399
-169.678 214.575 -36.2399
-169.678 215.069 -36.2399
-169.678 215.563 -36.2399
-169.678 216.057 -36.2399
-169.678 216.55 -36.2399
-169.678 217.044 -36.2399
-169.678 217.538 -36.2399
-169.678 218.032 -36.2399
-169.678 218.526 -36.2399
-169.678 219.02 -36.2399
-169.678 219.513 -36.2399
-169.678 220.007 -36.2399
-169.678 220.501 -36.2399
-169.678 220.995 -36.2399
-169.678 221.489 -36.2399
-169.678 221.983 -36.2399
-169.678 222.477 -36.2399
-169.678 222.97 -36.2399
-169.678 223.464 -36.2399
-169.678 223.958 -36.2399
-169.678 224.452 -36.2399
-169.678 224.946 -36.2399
-169.678 225.44 -36.2399
-169.678 225.933 -36.2399
-169.678 226.427 -36.2399
-169.678 226.921 -36.2399
-169.678 227.415 -36.2399
-169.678 227.909 -36.2399
-169.678 228.403 -36.2399
-169.678 228.897 -36.2399
-169.678 229.39 -36.2399
-169.678 229.884 -36.2399
-169.678 230.378 -36.2399
-169.678 230.872 -36.2399
-169.678 231.366 -36.2399
-169.678 231.86 -36.2399
-169.678 232.353 -36.2399
-169.678 232.847 -36.2399
-169.678 233.341 -36.2399
-169.678 233.835 -36.2399
-169.678 234.329 -36.2399
-169.678 234.823 -36.2399
-169.678 235.316 -36.2399
-169.678 235.81 -36.2399
-169.678 236.304 -36.2399
-169.678 236.798 -36.2399
-169.678 237.292 -36.2399
-169.678 237.786 -36.2399
-169.678 238.28 -36.2399
-169.678 238.773 -36.2399
-169.678 239.267 -36.2399
-169.678 239.761 -36.2399
-169.678 240.255 -36.2399
-169.678 240.749 -36.2399
-169.678 241.243 -36.2399
-169.678 241.736 -36.2399
-169.678 242.23 -36.2399
-169.678 242.724 -36.2399
-169.678 243.218 -36.2399
-169.678 243.712 -36.2399
-169.678 244.206 -36.2399
-169.678 244.7 -36.2399
-169.678 245.193 -36.2399
-169.678 245.687 -36.2399
-169.678 246.181 -36.2399
-169.678 246.675 -36.2399
-169.678 249.638 -36.2399
-164.958 246.196 -36.0973
-164.958 246.688 -36.0973
-164.958 250.131 -36.0973
-164.958 250.623 -36.0973
-164.958 251.115 -36.0973
-164.958 251.607 -36.0973
-164.958 252.099 -36.0973
-164.958 252.591 -36.0973
-164.958 253.083 -36.0973
-164.958 255.05 -36.0973
-164.958 255.542 -36.0973
-164.958 256.034 -36.0973
-164.958 256.526 -36.0973
-164.958 257.018 -36.0973
-164.958 257.51 -36.0973
-164.958 258.002 -36.0973
-164.958 258.494 -36.0973
-164.958 258.985 -36.0973
-164.958 259.477 -36.0973
-164.958 259.969 -36.0973
-164.958 260.461 -36.0973
-164.958 260.953 -36.0973
-164.958 261.445 -36.0973
-164.958 261.937 -36.0973
-164.958 262.429 -36.0973
-164.958 262.921 -36.0973
-164.958 263.413 -36.0973
-164.958 263.904 -36.0973
-164.958 264.396 -36.0973
-164.958 264.888 -36.0973
-164.958 265.38 -36.0973
-164.958 265.872 -36.0973
-164.958 266.364 -36.0973
-164.958 266.856 -36.0973
-164.958 267.348 -36.0973
-164.958 267.84 -36.0973
-164.958 268.332 -36.0973
-164.958 268.823 -36.0973
-164.958 269.315 -36.0973
-164.958 269.807 -36.0973
-164.958 270.299 -36.0973
-164.958 270.791 -36.0973
-164.958 271.283 -36.0973
-164.958 271.775 -36.0973
-164.958 272.267 -36.0973
-164.958 272.759 -36.0973
-164.958 273.251 -36.0973
-164.958 273.742 -36.0973
-164.958 274.234 -36.0973
-164.958 274.726 -36.0973
-164.958 275.218 -36.0973
-164.958 275.71 -36.0973
-164.958 276.202 -36.0973
-164.958 276.694 -36.0973
-164.958 277.186 -36.0973
-164.958 277.678 -36.0973
-164.958 278.17 -36.0973
-164.958 278.662 -36.0973
-164.958 279.153 -36.0973
-164.958 279.645 -36.0973
-164.958 280.137 -36.0973
-164.958 280.629 -36.0973
-164.958 281.121 -36.0973
-164.958 281.613 -36.0973
-164.958 282.105 -36.0973
-164.958 282.597 -36.0973
-164.958 284.564 -36.0973
-164.958 285.056 -36.0973
-128.486 -122.798 -34.9956
-128.486 -122.322 -34.9956
-128.486 -121.368 -34.9956
-128.486 -120.891 -34.9956
-124.084 -119.956 -34.8626
-119.714 -119.029 -34.7306
-119.714 -118.556 -34.7306
-119.714 -118.082 -34.7306
-119.714 -117.609 -34.7306
-119.714 -117.136 -34.7306
-115.377 -115.751 -34.5996
-115.377 -115.279 -34.5996
-115.377 -114.808 -34.5996
-115.377 -114.337 -34.5996
-115.377 -113.865 -34.5996
-111.073 -112.028 -34.4696
-111.073 -111.558 -34.4696
-111.073 -111.089 -34.4696
