# .PCD v.7 - Point Cloud Data file format
VERSION .7
FIELDS x y z
SIZE 4 4 4 
TYPE F F F 
COUNT 1 1 1 
WIDTH 1892
HEIGHT 1
VIEWPOINT 0 0 0 1 0 0 0
POINTS 1892
DATA ascii
-167.166 154.496 186.848
-167.166 154.989 186.848
-167.166 155.481 186.848
-167.166 155.974 186.848
-167.166 156.467 186.848
-167.166 156.96 186.848
-167.166 157.453 186.848
-167.166 157.945 186.848
-167.166 158.438 186.848
-167.166 158.931 186.848
-167.166 159.424 186.848
-167.166 159.917 186.848
-167.166 160.409 186.848
-167.166 160.902 186.848
-167.166 161.395 186.848
-167.166 161.888 186.848
-167.166 162.381 186.848
-167.166 162.874 186.848
-167.166 163.366 186.848
-167.166 163.859 186.848
-167.166 164.352 186.848
-167.166 164.845 186.848
-167.166 165.338 186.848
-167.166 165.83 186.848
-167.166 166.323 186.848
-167.166 166.816 186.848
-167.166 167.309 186.848
-167.166 167.802 186.848
-167.166 168.294 186.848
-167.166 168.787 186.848
-167.166 169.28 186.848
-167.166 169.773 186.848
-167.166 170.266 186.848
-167.166 170.758 186.848
-167.166 171.251 186.848
-167.166 171.744 186.848
-167.166 172.237 186.848
-167.166 172.73 186.848
-167.166 173.223 186.848
-167.166 173.715 186.848
-167.166 174.208 186.848
-167.166 174.701 186.848
-167.166 175.194 186.848
-167.166 175.687 186.848
-167.166 176.179 186.848
-167.166 176.672 186.848
-167.166 177.165 186.848
-167.166 177.658 186.848
-167.166 178.151 186.848
-167.166 178.643 186.848
-167.166 179.136 186.848
-167.166 179.629 186.848
-167.166 180.122 186.848
-167.166 180.615 186.848
-167.166 181.107 186.848
-167.166 181.6 186.848
-167.166 182.093 186.848
-167.166 182.586 186.848
-167.166 183.079 186.848
-167.166 183.571 186.848
-167.166 184.064 186.848
-167.166 184.557 186.848
-167.166 185.05 186.848
-167.166 185.543 186.848
-167.166 186.036 186.848
-167.166 186.528 186.848
-167.166 187.021 186.848
-167.166 187.514 186.848
-167.166 188.007 186.848
-167.166 188.5 186.848
-167.166 188.992 186.848
-167.166 189.485 186.848
-167.166 189.978 186.848
-167.166 190.471 186.848
-167.166 190.964 186.848
-167.166 191.456 186.848
-167.166 191.949 186.848
-167.166 192.442 186.848
-167.166 192.935 186.848
-167.166 193.428 186.848
-167.166 193.92 186.848
-167.166 194.413 186.848
-167.166 196.385 186.848
-167.166 196.877 186.848
-162.465 232.429 186.114
-162.465 232.92 186.114
-162.465 233.411 186.114
-162.465 233.902 186.114
-162.465 234.392 186.114
-162.465 234.883 186.114
-162.465 235.374 186.114
-162.465 235.865 186.114
-162.465 236.356 186.114
-162.465 236.847 186.114
-162.465 237.338 186.114
-162.465 237.829 186.114
-162.465 238.319 186.114
-162.465 238.81 186.114
-162.465 239.301 186.114
-162.465 239.792 186.114
-162.465 240.283 186.114
-162.465 240.774 186.114
-162.465 241.265 186.114
-162.465 241.756 186.114
-162.465 242.246 186.114
-162.465 242.737 186.114
-162.465 243.228 186.114
-162.465 243.719 186.114
-162.465 244.21 186.114
-162.465 244.701 186.114
-162.465 245.192 186.114
-162.465 245.683 186.114
-162.465 246.173 186.114
-162.465 246.664 186.114
-162.465 247.155 186.114
-162.465 247.646 186.114
-162.465 248.137 186.114
-162.465 248.628 186.114
-162.465 249.119 186.114
-162.465 249.609 186.114
-162.465 250.1 186.114
-162.465 250.591 186.114
-162.465 251.082 186.114
-162.465 251.573 186.114
-162.465 252.064 186.114
-162.465 252.555 186.114
-162.465 253.046 186.114
-162.465 253.536 186.114
-162.465 254.027 186.114
-162.465 254.518 186.114
-162.465 255.009 186.114
-162.465 255.5 186.114
-162.465 255.991 186.114
-162.465 256.482 186.114
-162.465 256.973 186.114
-162.465 257.463 186.114
-162.465 257.954 186.114
-162.465 258.445 186.114
-162.465 258.936 186.114
-162.465 259.427 186.114
-162.465 259.918 186.114
-162.465 260.409 186.114
-162.465 260.9 186.114
-162.465 261.39 186.114
-162.465 261.881 186.114
-162.465 262.372 186.114
-162.465 262.863 186.114
-162.465 263.354 186.114
-162.465 263.845 186.114
-162.465 264.336 186.114
-162.465 264.827 186.114
-162.465 265.317 186.114
-162.465 265.808 186.114
-162.465 266.299 186.114
-162.465 266.79 186.114
-162.465 267.281 186.114
-162.465 267.772 186.114
-162.465 268.263 186.114
-162.465 268.754 186.114
-162.465 269.244 186.114
-162.465 269.735 186.114
-162.465 270.226 186.114
-162.465 270.717 186.114
-162.465 271.208 186.114
-162.465 271.699 186.114
-162.465 272.19 186.114
-162.465 272.681 186.114
-162.465 273.171 186.114
-162.465 273.662 186.114
-162.465 274.153 186.114
-162.465 274.644 186.114
-162.465 275.135 186.114
-162.465 275.626 186.114
-162.465 276.117 186.114
-162.465 276.608 186.114
-162.465 277.098 186.114
-162.465 277.589 186.114
-162.465 278.08 186.114
-162.465 278.571 186.114
-162.465 279.062 186.114
-162.465 279.553 186.114
-162.465 280.044 186.114
-162.465 280.535 186.114
-162.465 281.025 186.114
-162.465 281.516 186.114
-162.465 282.007 186.114
-162.465 282.498 186.114
-162.465 282.989 186.114
-162.465 283.48 186.114
-162.465 283.971 186.114
-162.465 284.462 186.114
-162.465 284.952 186.114
-162.465 285.443 186.114
-48.1498 -53.0361 168.272
-48.1498 -52.5923 168.272
-48.1498 -52.1485 168.272
-44.3354 -51.964 167.677
-44.3354 -51.5217 167.677
-44.3354 -50.6372 167.677
-44.3354 -50.195 167.677
-44.3354 -49.7527 167.677
-44.3354 -49.3105 167.677
-44.3354 74.9608 167.677
-44.3354 75.403 167.677
-44.3354 75.8453 167.677
-44.3354 76.2875 167.677
-44.3354 76.7298 167.677
-44.3354 77.172 167.677
-44.3354 77.6143 167.677
-44.3354 78.0565 167.677
-44.3354 78.4988 167.677
-44.3354 82.479 167.677
-44.3354 82.9212 167.677
-40.5478 -49.5773 167.086
-40.5478 -49.1366 167.086
-40.5478 -48.696 167.086
-40.5478 -48.2553 167.086
-40.5478 -47.8146 167.086
-40.5478 -47.3739 167.086
-40.5478 -46.9332 167.086
-40.5478 -46.4925 167.086
-40.5478 -46.0518 167.086
-40.5478 62.3573 167.086
-40.5478 62.798 167.086
-40.5478 63.2386 167.086
-40.5478 63.6793 167.086
-40.5478 73.3745 167.086
-40.5478 73.8151 167.086
-40.5478 74.2558 167.086
-40.5478 74.6965 167.086
-40.5478 75.1372 167.086
-40.5478 77.3406 167.086
-40.5478 77.7813 167.086
-40.5478 78.222 167.086
-40.5478 78.6627 167.086
-40.5478 79.1034 167.086
-40.5478 79.5441 167.086
-40.5478 79.9848 167.086
-40.5478 80.4255 167.086
-40.5478 80.8661 167.086
-40.5478 81.3068 167.086
-40.5478 81.7475 167.086
-40.5478 82.1882 167.086
-36.7868 -44.5726 166.499
-36.7868 -44.1335 166.499
-36.7868 -40.1812 166.499
-36.7868 -39.7421 166.499
-36.7868 -39.303 166.499
-36.7868 -38.8638 166.499
-36.7868 -38.4247 166.499
-36.7868 -37.9855 166.499
-36.7868 -37.5464 166.499
-36.7868 57.7468 166.499
-36.7868 61.6991 166.499
-36.7868 62.1382 166.499
-36.7868 62.5773 166.499
-36.7868 63.0165 166.499
-36.7868 63.4556 166.499
-36.7868 63.8948 166.499
-36.7868 64.3339 166.499
-36.7868 64.773 166.499
-36.7868 65.2122 166.499
-36.7868 65.6513 166.499
-36.7868 66.0905 166.499
-36.7868 66.5296 166.499
-36.7868 66.9687 166.499
-36.7868 67.4079 166.499
-36.7868 67.847 166.499
-36.7868 68.2862 166.499
-36.7868 68.7253 166.499
-36.7868 69.1644 166.499
-36.7868 69.6036 166.499
-36.7868 70.0427 166.499
-36.7868 70.4818 166.499
-36.7868 70.921 166.499
-36.7868 71.3601 166.499
-36.7868 71.7993 166.499
-36.7868 72.2384 166.499
-36.7868 72.6775 166.499
-36.7868 73.1167 166.499
-36.7868 73.5558 166.499
-36.7868 73.995 166.499
-36.7868 82.7777 166.499
-33.0522 -36.5398 165.916
-33.0522 52.731 165.916
-33.0522 57.5446 165.916
-33.0522 58.8575 165.916
-33.0522 81.6128 165.916
-33.0522 82.488 165.916
-29.3437 52.9831 165.337
-29.3437 53.4192 165.337
-29.3437 53.8553 165.337
-29.3437 54.2914 165.337
-29.3437 54.7274 165.337
-29.3437 55.1635 165.337
-29.3437 55.5996 165.337
-29.3437 56.0357 165.337
-25.6609 -33.6783 164.762
-25.6609 52.3644 164.762
-25.6609 52.799 164.762
-25.6609 53.2335 164.762
-22.0036 -33.9947 164.191
-22.0036 -33.5617 164.191
-22.0036 -33.1286 164.191
-22.0036 -32.6956 164.191
-22.0036 -32.2625 164.191
-22.0036 -31.8295 164.191
-22.0036 -31.3964 164.191
-22.0036 -30.9633 164.191
-22.0036 -30.5303 164.191
-22.0036 -30.0972 164.191
-22.0036 -29.6642 164.191
-22.0036 -29.2311 164.191
-22.0036 -28.7981 164.191
-22.0036 -28.365 164.191
-22.0036 -24.4675 164.191
-22.0036 -24.0345 164.191
-22.0036 -23.6014 164.191
-22.0036 -23.1684 164.191
-22.0036 -22.7353 164.191
-22.0036 -22.3023 164.191
-22.0036 -21.8692 164.191
-22.0036 -21.4362 164.191
-22.0036 -21.0031 164.191
-22.0036 -20.5701 164.191
-22.0036 -20.137 164.191
-22.0036 -19.7039 164.191
-22.0036 -19.2709 164.191
-22.0036 -18.8378 164.191
-22.0036 -18.4048 164.191
-22.0036 -17.9717 164.191
-22.0036 -17.5387 164.191
-22.0036 -17.1056 164.191
-22.0036 -16.6726 164.191
-22.0036 -16.2395 164.191
-22.0036 -15.8065 164.191
-22.0036 37.0261 164.191
-22.0036 37.4592 164.191
-22.0036 37.8922 164.191
-22.0036 38.3253 164.191
-22.0036 38.7583 164.191
-22.0036 39.1914 164.191
-22.0036 39.6244 164.191
-22.0036 40.0575 164.191
-22.0036 40.4905 164.191
-22.0036 40.9236 164.191
-22.0036 41.3566 164.191
-22.0036 41.7897 164.191
-22.0036 42.2227 164.191
-22.0036 45.2541 164.191
-22.0036 45.6872 164.191
-22.0036 47.8524 164.191
-22.0036 48.2855 164.191
-22.0036 50.0177 164.191
-22.0036 50.4508 164.191
-22.0036 50.8838 164.191
-22.0036 51.3169 164.191
-22.0036 51.7499 164.191
-22.0036 52.183 164.191
-18.3716 -30.8564 163.625
-18.3716 -30.4249 163.625
-18.3716 -29.9933 163.625
-18.3716 -29.5618 163.625
-18.3716 -29.1302 163.625
-18.3716 -28.6987 163.625
-18.3716 -28.2671 163.625
-18.3716 -27.8355 163.625
-18.3716 -27.404 163.625
-18.3716 -26.9724 163.625
-18.3716 -26.5409 163.625
-18.3716 -26.1093 163.625
-18.3716 -25.6777 163.625
-18.3716 -25.2462 163.625
-18.3716 -24.8146 163.625
-18.3716 -24.3831 163.625
-18.3716 -23.9515 163.625
-18.3716 -23.5199 163.625
-18.3716 -23.0884 163.625
-18.3716 -22.6568 163.625
-18.3716 -22.2253 163.625
-18.3716 -21.7937 163.625
-18.3716 -21.3622 163.625
-18.3716 -20.9306 163.625
-18.3716 -20.499 163.625
-18.3716 -20.0675 163.625
-18.3716 -19.6359 163.625
-18.3716 -19.2044 163.625
-18.3716 -18.7728 163.625
-18.3716 -18.3412 163.625
-18.3716 -17.9097 163.625
-18.3716 -17.4781 163.625
-18.3716 -17.0466 163.625
-18.3716 -16.615 163.625
-18.3716 -16.1834 163.625
-18.3716 -15.7519 163.625
-18.3716 -15.3203 163.625
-18.3716 32.1511 163.625
-18.3716 32.5827 163.625
-18.3716 33.0142 163.625
-18.3716 33.4458 163.625
-18.3716 33.8774 163.625
-18.3716 34.3089 163.625
-18.3716 34.7405 163.625
-18.3716 35.172 163.625
-18.3716 35.6036 163.625
-18.3716 36.0351 163.625
-18.3716 36.4667 163.625
-18.3716 36.8983 163.625
-18.3716 37.3298 163.625
-18.3716 37.7614 163.625
-18.3716 38.1929 163.625
-18.3716 38.6245 163.625
-18.3716 39.0561 163.625
-18.3716 39.4876 163.625
-18.3716 39.9192 163.625
-18.3716 40.3507 163.625
-18.3716 40.7823 163.625
-18.3716 41.2139 163.625
-18.3716 41.6454 163.625
-18.3716 42.077 163.625
-18.3716 42.5085 163.625
-18.3716 42.9401 163.625
-18.3716 43.3716 163.625
-18.3716 43.8032 163.625
-18.3716 44.2348 163.625
-18.3716 44.6663 163.625
-18.3716 45.0979 163.625
-18.3716 46.8241 163.625
-18.3716 47.2557 163.625
-18.3716 47.6872 163.625
-18.3716 49.4135 163.625
-18.3716 49.845 163.625
-18.3716 51.1397 163.625
-18.3716 51.5713 163.625
-14.7646 -11.397 163.062
-14.7646 -10.9669 163.062
-14.7646 -10.5368 163.062
-14.7646 -10.1067 163.062
-14.7646 -9.67666 163.062
-14.7646 -9.24659 163.062
-14.7646 -8.81651 163.062
-14.7646 -8.38644 163.062
-14.7646 -7.95637 163.062
-14.7646 -7.52629 163.062
-14.7646 -7.09622 163.062
-14.7646 23.8691 163.062
-14.7646 24.2992 163.062
-14.7646 24.7292 163.062
-14.7646 25.1593 163.062
-14.7646 25.5894 163.062
-14.7646 26.0195 163.062
-14.7646 26.4495 163.062
-14.7646 26.8796 163.062
-14.7646 27.3097 163.062
-14.7646 27.7398 163.062
-14.7646 28.1698 163.062
-14.7646 28.5999 163.062
-14.7646 29.03 163.062
-14.7646 29.4601 163.062
-14.7646 29.8901 163.062
-14.7646 30.3202 163.062
-14.7646 30.7503 163.062
-14.7646 31.1804 163.062
-14.7646 31.6104 163.062
-14.7646 32.0405 163.062
-14.7646 32.4706 163.062
-14.7646 32.9006 163.062
-14.7646 46.2329 163.062
-11.1823 -10.9293 162.502
-11.1823 -10.5007 162.502
-11.1823 -10.0721 162.502
-11.1823 -9.64348 162.502
-11.1823 -9.21488 162.502
-11.1823 -8.78628 162.502
-11.1823 -8.35768 162.502
-11.1823 -7.92909 162.502
-11.1823 -7.50049 162.502
-11.1823 -7.07189 162.502
-11.1823 -6.64329 162.502
-11.1823 -6.21469 162.502
-11.1823 -5.78609 162.502
-11.1823 -5.35749 162.502
-11.1823 -4.92889 162.502
-11.1823 -4.50029 162.502
-11.1823 -4.07169 162.502
-11.1823 -3.64309 162.502
-11.1823 -3.21449 162.502
-11.1823 -2.78589 162.502
-11.1823 -2.3573 162.502
-11.1823 -1.9287 162.502
-11.1823 -1.5001 162.502
-11.1823 3.64309 162.502
-11.1823 4.07169 162.502
-11.1823 4.50029 162.502
-11.1823 4.92889 162.502
-11.1823 5.35749 162.502
-11.1823 5.78609 162.502
-11.1823 6.21469 162.502
-11.1823 6.64329 162.502
-11.1823 7.07189 162.502
-11.1823 7.50049 162.502
-11.1823 7.92909 162.502
-11.1823 8.35768 162.502
-11.1823 8.78628 162.502
-11.1823 9.21488 162.502
-11.1823 9.64348 162.502
-11.1823 10.0721 162.502
-11.1823 10.5007 162.502
-11.1823 10.9293 162.502
-11.1823 11.3579 162.502
-11.1823 11.7865 162.502
-11.1823 12.2151 162.502
-11.1823 12.6437 162.502
-11.1823 13.0723 162.502
-11.1823 13.5009 162.502
-11.1823 13.9295 162.502
-11.1823 14.3581 162.502
-11.1823 14.7867 162.502
-11.1823 15.2153 162.502
-11.1823 15.6439 162.502
-11.1823 16.0725 162.502
-11.1823 16.5011 162.502
-11.1823 16.9297 162.502
-11.1823 17.3583 162.502
-11.1823 17.7869 162.502
-11.1823 18.2155 162.502
-11.1823 18.6441 162.502
-11.1823 19.0727 162.502
-11.1823 19.5013 162.502
-11.1823 19.9299 162.502
-11.1823 20.3585 162.502
-11.1823 20.7871 162.502
-11.1823 21.2157 162.502
-11.1823 21.6443 162.502
-11.1823 22.0729 162.502
-11.1823 22.5015 162.502
-11.1823 22.9301 162.502
-11.1823 23.3587 162.502
-11.1823 23.7873 162.502
-11.1823 24.2159 162.502
-11.1823 24.6445 162.502
-11.1823 48.646 162.502
-11.1823 49.5032 162.502
-7.6245 -4.91205 161.947
-7.6245 -4.48491 161.947
-7.6245 -4.05778 161.947
-7.6245 -3.63064 161.947
-7.6245 -3.20351 161.947
-7.6245 -2.77638 161.947
-7.6245 -2.34924 161.947
-7.6245 -1.92211 161.947
-7.6245 -1.49497 161.947
-7.6245 -1.06784 161.947
-7.6245 -0.640702 161.947
-7.6245 -0.213567 161.947
-7.6245 0.213567 161.947
-7.6245 0.640702 161.947
-7.6245 1.06784 161.947
-7.6245 1.49497 161.947
-7.6245 1.92211 161.947
-7.6245 2.34924 161.947
-7.6245 2.77638 161.947
-7.6245 3.20351 161.947
-7.6245 3.63064 161.947
-7.6245 4.05778 161.947
-7.6245 6.19345 161.947
-7.6245 6.62059 161.947
-7.6245 7.04772 161.947
-7.6245 7.47486 161.947
-7.6245 7.90199 161.947
-7.6245 8.32913 161.947
-7.6245 8.75626 161.947
-7.6245 9.1834 161.947
-7.6245 9.61053 161.947
-7.6245 10.0377 161.947
-7.6245 10.4648 161.947
-7.6245 10.8919 161.947
-7.6245 11.3191 161.947
-7.6245 11.7462 161.947
-7.6245 12.1733 161.947
-7.6245 12.6005 161.947
-7.6245 13.0276 161.947
-7.6245 13.4547 161.947
-7.6245 13.8819 161.947
-7.6245 14.309 161.947
-7.6245 14.7361 161.947
-7.6245 15.1633 161.947
-7.6245 15.5904 161.947
-7.6245 16.0175 161.947
-7.6245 16.4447 161.947
-7.6245 16.8718 161.947
-7.6245 17.299 161.947
-7.6245 17.7261 161.947
-7.6245 18.1532 161.947
-7.6245 18.5804 161.947
-7.6245 19.0075 161.947
-7.6245 19.4346 161.947
-7.6245 19.8618 161.947
-202.294 -278.237 186.126
-202.294 -277.73 186.126
-202.294 -277.223 186.126
-202.294 -276.716 186.126
-202.294 -276.208 186.126
-202.294 -275.701 186.126
-202.294 -275.194 186.126
-202.294 -274.687 186.126
-202.294 -274.179 186.126
-202.294 -273.672 186.126
-202.294 -273.165 186.126
-202.294 -272.658 186.126
-202.294 -272.15 186.126
-202.294 -271.643 186.126
-202.294 -271.136 186.126
-202.294 -270.628 186.126
-202.294 -270.121 186.126
-202.294 -269.614 186.126
-202.294 -269.107 186.126
-202.294 -268.599 186.126
-202.294 -268.092 186.126
-202.294 -267.585 186.126
-202.294 -267.078 186.126
-202.294 -266.57 186.126
-202.294 -266.063 186.126
-202.294 -265.556 186.126
-202.294 -265.048 186.126
-202.294 -264.541 186.126
-202.294 -264.034 186.126
-202.294 -263.527 186.126
-202.294 -263.019 186.126
-202.294 -262.512 186.126
-202.294 -262.005 186.126
-202.294 -261.498 186.126
-202.294 -260.99 186.126
-202.294 -260.483 186.126
-202.294 -259.976 186.126
-202.294 -259.469 186.126
-202.294 -258.961 186.126
-202.294 -258.454 186.126
-202.294 -257.947 186.126
-202.294 -257.439 186.126
-202.294 -256.932 186.126
-202.294 -256.425 186.126
-202.294 -255.918 186.126
-202.294 -255.41 186.126
-202.294 -254.903 186.126
-202.294 -254.396 186.126
-202.294 -253.889 186.126
-202.294 -253.381 186.126
-202.294 -252.874 186.126
-202.294 -252.367 186.126
-202.294 -251.859 186.126
-202.294 -251.352 186.126
-202.294 -250.845 186.126
-202.294 -250.338 186.126
-202.294 -249.83 186.126
-202.294 -249.323 186.126
-202.294 -248.816 186.126
-202.294 -248.309 186.126
-202.294 -247.801 186.126
-197.314 -233.664 185.374
-197.314 -233.159 185.374
-197.314 -232.654 185.374
-197.314 -232.148 185.374
-197.314 -231.643 185.374
-197.314 -231.138 185.374
-197.314 -230.633 185.374
-197.314 -230.128 185.374
-197.314 -229.622 185.374
-197.314 -229.117 185.374
-197.314 -228.612 185.374
-197.314 -228.107 185.374
-197.314 -227.601 185.374
-197.314 -227.096 185.374
-197.314 -226.591 185.374
-197.314 -226.086 185.374
-197.314 -225.581 185.374
-197.314 -225.075 185.374
-197.314 -224.57 185.374
-197.314 -224.065 185.374
-197.314 -223.56 185.374
-197.314 -223.054 185.374
-197.314 -222.549 185.374
-197.314 -222.044 185.374
-197.314 -221.539 185.374
-197.314 -221.034 185.374
-197.314 -220.528 185.374
-197.314 -220.023 185.374
-197.314 -219.518 185.374
-197.314 -219.013 185.374
-197.314 -218.507 185.374
-197.314 -218.002 185.374
-197.314 -217.497 185.374
-197.314 -216.992 185.374
-197.314 -216.487 185.374
-197.314 -215.981 185.374
-197.314 -215.476 185.374
-197.314 -214.971 185.374
-197.314 -214.466 185.374
-197.314 -213.96 185.374
-197.314 -213.455 185.374
-197.314 -212.95 185.374
-197.314 -212.445 185.374
-197.314 -211.94 185.374
-197.314 -211.434 185.374
-197.314 -210.929 185.374
-197.314 -210.424 185.374
-197.314 -209.919 185.374
-197.314 -209.414 185.374
-197.314 -208.908 185.374
-197.314 -208.403 185.374
-197.314 -207.898 185.374
-197.314 -207.393 185.374
-197.314 -206.887 185.374
-197.314 -206.382 185.374
-197.314 -205.877 185.374
-197.314 -205.372 185.374
-197.314 -204.867 185.374
-197.314 -204.361 185.374
-192.373 -181.902 184.628
-192.373 -181.398 184.628
-192.373 -180.895 184.628
-192.373 -180.392 184.628
-192.373 -179.889 184.628
-192.373 -179.386 184.628
-192.373 -178.883 184.628
-192.373 -178.379 184.628
-192.373 -177.876 184.628
-192.373 -177.373 184.628
-192.373 -176.87 184.628
-192.373 -176.367 184.628
-192.373 -175.863 184.628
-192.373 -175.36 184.628
-192.373 -174.857 184.628
-192.373 -174.354 184.628
-192.373 -173.851 184.628
-192.373 -173.348 184.628
-192.373 -172.844 184.628
-192.373 -172.341 184.628
-192.373 -171.838 184.628
-192.373 -171.335 184.628
-192.373 -170.832 184.628
-192.373 -170.328 184.628
-192.373 -169.825 184.628
-192.373 -169.322 184.628
-192.373 -168.819 184.628
-192.373 -168.316 184.628
-192.373 -167.812 184.628
-192.373 -167.309 184.628
-192.373 -166.806 184.628
-192.373 -166.303 184.628
-192.373 -165.8 184.628
-192.373 -165.297 184.628
-192.373 -164.793 184.628
-192.373 -164.29 184.628
-192.373 -163.787 184.628
-192.373 -163.284 184.628
-192.373 -162.781 184.628
-192.373 -162.277 184.628
-192.373 -161.774 184.628
-192.373 -161.271 184.628
-192.373 -160.768 184.628
-192.373 -160.265 184.628
-192.373 -159.761 184.628
-192.373 -159.258 184.628
-192.373 -158.755 184.628
-192.373 -158.252 184.628
-192.373 -157.749 184.628
-192.373 -157.246 184.628
-192.373 -156.742 184.628
-192.373 -156.239 184.628
-192.373 -155.736 184.628
-192.373 -155.233 184.628
-192.373 -154.73 184.628
-192.373 -154.226 184.628
-192.373 -153.723 184.628
-192.373 -153.22 184.628
-192.373 -152.717 184.628
-192.373 -152.214 184.628
-192.373 -151.711 184.628
-192.373 -151.207 184.628
-192.373 -149.195 184.628
-192.373 -148.691 184.628
-187.472 -128.55 183.887
-187.472 -128.049 183.887
-187.472 -125.543 183.887
-187.472 -125.042 183.887
-187.472 -124.54 183.887
-187.472 -124.039 183.887
-187.472 -123.538 183.887
-187.472 -123.037 183.887
-187.472 -122.536 183.887
-187.472 -122.034 183.887
-187.472 -121.533 183.887
-187.472 -121.032 183.887
-187.472 -120.531 183.887
-187.472 -120.03 183.887
-187.472 -119.529 183.887
-187.472 -119.027 183.887
-187.472 -118.526 183.887
-187.472 -118.025 183.887
-187.472 -117.524 183.887
-187.472 -117.023 183.887
-187.472 -116.522 183.887
-187.472 -116.02 183.887
-187.472 -115.519 183.887
-187.472 -115.018 183.887
-187.472 -114.517 183.887
-187.472 -114.016 183.887
-187.472 -113.515 183.887
-187.472 -113.013 183.887
-187.472 -112.512 183.887
-187.472 -112.011 183.887
-187.472 -111.51 183.887
-187.472 -111.009 183.887
-187.472 -110.508 183.887
-187.472 -110.006 183.887
-187.472 -109.505 183.887
-187.472 -109.004 183.887
-187.472 -108.503 183.887
-187.472 -108.002 183.887
-187.472 -107.501 183.887
-187.472 -106.999 183.887
-187.472 -106.498 183.887
-187.472 -105.997 183.887
-187.472 -105.496 183.887
-187.472 -104.995 183.887
-187.472 -104.494 183.887
-187.472 -103.992 183.887
-187.472 -103.491 183.887
-187.472 -102.99 183.887
-187.472 -102.489 183.887
-187.472 -101.988 183.887
-187.472 -101.487 183.887
-187.472 -100.985 183.887
-187.472 -100.484 183.887
-187.472 -99.9831 183.887
-187.472 -99.4819 183.887
-187.472 -98.9807 183.887
-187.472 -98.4796 183.887
-187.472 -97.9784 183.887
-187.472 -97.4772 183.887
-187.472 -96.9761 183.887
-187.472 -96.4749 183.887
-187.472 -95.9737 183.887
-187.472 -95.4726 183.887
-187.472 -93.9691 183.887
-187.472 -93.4679 183.887
-187.472 -92.9667 183.887
-187.472 -92.4656 183.887
-182.61 -77.1213 183.153
-182.61 -76.6221 183.153
-182.61 -76.123 183.153
-182.61 -75.6238 183.153
-182.61 -75.1246 183.153
-182.61 -74.6255 183.153
-182.61 -74.1263 183.153
-182.61 -73.6271 183.153
-182.61 -73.128 183.153
-182.61 -72.6288 183.153
-182.61 -72.1296 183.153
-182.61 -71.6305 183.153
-182.61 -71.1313 183.153
-182.61 -70.6321 183.153
-182.61 -70.133 183.153
-182.61 -69.6338 183.153
-182.61 -69.1346 183.153
-182.61 -68.6355 183.153
-182.61 -68.1363 183.153
-182.61 -67.6371 183.153
-182.61 -67.138 183.153
-182.61 -66.6388 183.153
-182.61 -66.1396 183.153
-182.61 -65.6405 183.153
-182.61 -65.1413 183.153
-182.61 -64.6421 183.153
-182.61 -64.143 183.153
-173.002 96.3187 181.702
-173.002 96.8139 181.702
-173.002 97.3091 181.702
-173.002 97.8044 181.702
-173.002 98.2996 181.702
-173.002 98.7948 181.702
-173.002 99.29 181.702
-173.002 99.7852 181.702
-173.002 100.28 181.702
-173.002 100.776 181.702
-173.002 101.271 181.702
-173.002 101.766 181.702
-173.002 102.261 181.702
-168.255 118.135 180.985
-168.255 118.628 180.985
-168.255 119.122 180.985
-168.255 119.615 180.985
-168.255 120.108 180.985
-168.255 120.602 180.985
-168.255 121.095 180.985
-168.255 123.068 180.985
-168.255 123.561 180.985
-168.255 124.054 180.985
-168.255 124.548 180.985
-168.255 125.041 180.985
-168.255 125.534 180.985
-168.255 126.027 180.985
-168.255 126.521 180.985
-168.255 127.014 180.985
-168.255 127.507 180.985
-168.255 128 180.985
-168.255 128.494 180.985
-168.255 128.987 180.985
-168.255 129.48 180.985
-168.255 129.973 180.985
-168.255 130.467 180.985
-168.255 130.96 180.985
-168.255 131.453 180.985
-168.255 131.946 180.985
-168.255 132.44 180.985
-168.255 132.933 180.985
-168.255 133.426 180.985
-168.255 133.919 180.985
-168.255 134.413 180.985
-168.255 134.906 180.985
-168.255 135.399 180.985
-168.255 135.893 180.985
-168.255 136.386 180.985
-168.255 136.879 180.985
-168.255 137.372 180.985
-168.255 137.866 180.985
-168.255 138.359 180.985
-168.255 138.852 180.985
-168.255 139.345 180.985
-168.255 139.839 180.985
-168.255 140.332 180.985
-168.255 140.825 180.985
-168.255 141.318 180.985
-168.255 141.812 180.985
-168.255 142.305 180.985
-168.255 142.798 180.985
-168.255 143.291 180.985
-168.255 143.785 180.985
-168.255 144.278 180.985
-168.255 144.771 180.985
-168.255 145.264 180.985
-168.255 145.758 180.985
-168.255 146.251 180.985
-168.255 146.744 180.985
-168.255 147.237 180.985
-168.255 147.731 180.985
-168.255 148.224 180.985
-168.255 148.717 180.985
-168.255 149.21 180.985
-168.255 149.704 180.985
-168.255 150.197 180.985
-168.255 150.69 180.985
-168.255 151.184 180.985
-168.255 151.677 180.985
-168.255 152.17 180.985
-168.255 152.663 180.985
-168.255 153.157 180.985
-168.255 153.65 180.985
-168.255 154.143 180.985
-168.255 154.636 180.985
-168.255 155.13 180.985
-168.255 155.623 180.985
-168.255 156.116 180.985
-168.255 156.609 180.985
-168.255 157.103 180.985
-168.255 157.596 180.985
-168.255 158.089 180.985
-168.255 158.582 180.985
-168.255 159.076 180.985
-168.255 159.569 180.985
-168.255 160.062 180.985
-168.255 160.555 180.985
-168.255 161.049 180.985
-168.255 161.542 180.985
-168.255 162.035 180.985
-168.255 162.528 180.985
-168.255 163.022 180.985
-168.255 163.515 180.985
-168.255 164.008 180.985
-168.255 164.501 180.985
-168.255 164.995 180.985
-168.255 165.488 180.985
-168.255 165.981 180.985
-168.255 166.475 180.985
-168.255 166.968 180.985
-168.255 167.461 180.985
-168.255 167.954 180.985
-168.255 168.448 180.985
-168.255 168.941 180.985
-168.255 169.434 180.985
-168.255 169.927 180.985
-168.255 170.421 180.985
-168.255 170.914 180.985
-168.255 171.407 180.985
-168.255 171.9 180.985
-168.255 172.394 180.985
-168.255 172.887 180.985
-168.255 173.38 180.985
-168.255 173.873 180.985
-163.545 204.143 180.273
-163.545 204.634 180.273
-163.545 205.126 180.273
-163.545 205.617 180.273
-163.545 206.108 180.273
-163.545 206.6 180.273
-163.545 207.091 180.273
-163.545 207.582 180.273
-163.545 211.022 180.273
-163.545 211.513 180.273
-163.545 212.004 180.273
-163.545 212.495 180.273
-163.545 212.987 180.273
-163.545 213.478 180.273
-163.545 213.969 180.273
-163.545 214.461 180.273
-163.545 214.952 180.273
-163.545 215.443 180.273
-163.545 215.935 180.273
-163.545 216.426 180.273
-163.545 216.917 180.273
-163.545 217.409 180.273
-163.545 217.9 180.273
-163.545 218.391 180.273
-163.545 218.883 180.273
-163.545 219.374 180.273
-163.545 219.865 180.273
-163.545 220.357 180.273
-163.545 220.848 180.273
-163.545 221.339 180.273
-163.545 221.831 180.273
-163.545 222.322 180.273
-163.545 222.813 180.273
-163.545 223.304 180.273
-163.545 223.796 180.273
-163.545 224.287 180.273
-163.545 224.778 180.273
-163.545 225.27 180.273
-163.545 225.761 180.273
-163.545 226.252 180.273
-163.545 226.744 180.273
-163.545 227.235 180.273
-163.545 227.726 180.273
-163.545 228.218 180.273
-163.545 228.709 180.273
-163.545 229.2 180.273
-163.545 229.692 180.273
-163.545 230.183 180.273
-163.545 230.674 180.273
-163.545 231.166 180.273
-163.545 231.657 180.273
-163.545 232.148 180.273
-163.545 232.64 180.273
-163.545 233.131 180.273
-163.545 233.622 180.273
-163.545 234.114 180.273
-163.545 234.605 180.273
-163.545 235.096 180.273
-163.545 235.587 180.273
-163.545 236.079 180.273
-163.545 236.57 180.273
-163.545 237.061 180.273
-163.545 237.553 180.273
-163.545 238.044 180.273
-163.545 238.535 180.273
-163.545 239.027 180.273
-163.545 239.518 180.273
-163.545 240.009 180.273
-163.545 240.501 180.273
-163.545 240.992 180.273
-163.545 241.483 180.273
-163.545 241.975 180.273
-163.545 242.466 180.273
-163.545 242.957 180.273
-163.545 243.449 180.273
-163.545 243.94 180.273
-163.545 244.431 180.273
-163.545 244.923 180.273
-163.545 245.414 180.273
-163.545 245.905 180.273
-163.545 246.396 180.273
-163.545 246.888 180.273
-163.545 247.379 180.273
-163.545 247.87 180.273
-163.545 248.362 180.273
-163.545 248.853 180.273
-163.545 249.344 180.273
-163.545 249.836 180.273
-163.545 250.327 180.273
-163.545 250.818 180.273
-163.545 251.31 180.273
-163.545 251.801 180.273
-163.545 252.292 180.273
-163.545 252.784 180.273
-163.545 253.275 180.273
-163.545 253.766 180.273
-163.545 254.258 180.273
-163.545 254.749 180.273
-163.545 255.24 180.273
-163.545 255.732 180.273
-163.545 256.223 180.273
-163.545 256.714 180.273
-163.545 257.205 180.273
-163.545 257.697 180.273
-163.545 258.188 180.273
-163.545 258.679 180.273
-163.545 259.171 180.273
-163.545 259.662 180.273
-163.545 260.153 180.273
-163.545 260.645 180.273
-163.545 261.136 180.273
-163.545 261.627 180.273
-163.545 262.119 180.273
-163.545 262.61 180.273
-163.545 263.101 180.273
-163.545 263.593 180.273
-163.545 264.084 180.273
-163.545 264.575 180.273
-163.545 265.067 180.273
-163.545 265.558 180.273
-163.545 266.049 180.273
-163.545 266.541 180.273
-163.545 267.032 180.273
-163.545 267.523 180.273
-163.545 268.015 180.273
-163.545 268.506 180.273
-163.545 268.997 180.273
-49.0332 -52.1912 162.977
-49.0332 -51.747 162.977
-49.0332 -51.3028 162.977
-49.0332 -50.8587 162.977
-45.2125 -51.1212 162.4
-45.2125 -50.6786 162.4
-45.2125 -50.236 162.4
-45.2125 -49.7934 162.4
-45.2125 -49.3507 162.4
-45.2125 -48.9081 162.4
-45.2125 -48.4655 162.4
-45.2125 -48.0229 162.4
-45.2125 -47.5803 162.4
-45.2125 -47.1377 162.4
-45.2125 74.1368 162.4
-45.2125 74.5794 162.4
-45.2125 75.022 162.4
-45.2125 75.4646 162.4
-45.2125 75.9072 162.4
-45.2125 76.3498 162.4
-45.2125 81.2185 162.4
-41.4187 -47.4124 161.827
-41.4187 -46.9714 161.827
-41.4187 -46.5303 161.827
-41.4187 -46.0893 161.827
-41.4187 -45.6483 161.827
-41.4187 -45.2072 161.827
-41.4187 -44.7662 161.827
-41.4187 -44.3251 161.827
-41.4187 -43.8841 161.827
-41.4187 -43.443 161.827
-41.4187 -43.002 161.827
-41.4187 59.7617 161.827
-41.4187 60.2028 161.827
-41.4187 60.6438 161.827
-41.4187 61.0849 161.827
-41.4187 61.5259 161.827
-41.4187 61.967 161.827
-41.4187 62.408 161.827
-41.4187 62.849 161.827
-41.4187 63.2901 161.827
-41.4187 63.7311 161.827
-41.4187 64.1722 161.827
-41.4187 64.6132 161.827
-41.4187 65.0543 161.827
-41.4187 72.9931 161.827
-41.4187 73.4341 161.827
-41.4187 73.8752 161.827
-41.4187 74.3162 161.827
-41.4187 75.6394 161.827
-41.4187 76.0804 161.827
-41.4187 76.5215 161.827
-41.4187 76.9625 161.827
-41.4187 77.4036 161.827
-41.4187 77.8446 161.827
-41.4187 78.2857 161.827
-41.4187 78.7267 161.827
-41.4187 79.1677 161.827
-41.4187 79.6088 161.827
-41.4187 80.0498 161.827
-41.4187 80.4909 161.827
-37.6517 -43.2903 161.258
-37.6517 -42.8508 161.258
-37.6517 -42.4113 161.258
-37.6517 -41.9718 161.258
-37.6517 -41.5323 161.258
-37.6517 -41.0928 161.258
-37.6517 -40.6533 161.258
-37.6517 -40.2138 161.258
-37.6517 -39.7743 161.258
-37.6517 -39.3348 161.258
-37.6517 56.4751 161.258
-37.6517 61.3096 161.258
-37.6517 61.7491 161.258
-37.6517 62.1886 161.258
-37.6517 62.6281 161.258
-37.6517 63.0676 161.258
-37.6517 63.5071 161.258
-37.6517 63.9466 161.258
-37.6517 64.3861 161.258
-37.6517 64.8255 161.258
-37.6517 65.265 161.258
-37.6517 65.7045 161.258
-37.6517 66.144 161.258
-37.6517 66.5835 161.258
-37.6517 67.023 161.258
-37.6517 67.4625 161.258
-37.6517 67.902 161.258
-37.6517 68.3415 161.258
-37.6517 68.781 161.258
-37.6517 69.2205 161.258
-37.6517 69.66 161.258
-37.6517 70.0995 161.258
-37.6517 70.539 161.258
-37.6517 70.9785 161.258
-37.6517 71.418 161.258
-37.6517 71.8575 161.258
-37.6517 72.297 161.258
-37.6517 72.7365 161.258
-37.6517 73.176 161.258
-37.6517 80.2079 161.258
-33.911 55.4014 160.693
-33.911 55.8393 160.693
-33.911 56.2773 160.693
-33.911 56.7152 160.693
-33.911 79.9269 160.693
-22.8446 -34.4553 159.022
-22.8446 -18.8529 159.022
-22.8446 -18.4195 159.022
-22.8446 38.7893 159.022
-22.8446 39.2227 159.022
-22.8446 39.6561 159.022
-22.8446 40.0895 159.022
-22.8446 40.5229 159.022
-22.8446 40.9563 159.022
-22.8446 41.3897 159.022
-22.8446 41.8231 159.022
-22.8446 43.9901 159.022
-22.8446 47.4573 159.022
-22.8446 47.8907 159.022
-22.8446 48.3241 159.022
-19.2068 -34.7681 158.472
-19.2068 -34.3362 158.472
-19.2068 -33.9043 158.472
-19.2068 -33.4724 158.472
-19.2068 -33.0405 158.472
-19.2068 -32.6086 158.472
-19.2068 -32.1767 158.472
-19.2068 -31.7448 158.472
-19.2068 -31.3129 158.472
-19.2068 -30.881 158.472
-19.2068 -30.4491 158.472
-19.2068 -30.0172 158.472
-19.2068 -29.5853 158.472
-19.2068 -29.1534 158.472
-19.2068 -28.7215 158.472
-19.2068 -28.2896 158.472
-19.2068 -27.8577 158.472
-19.2068 -27.4258 158.472
-19.2068 -26.9939 158.472
-19.2068 -26.562 158.472
-19.2068 -26.1301 158.472
-19.2068 -25.6982 158.472
-19.2068 -25.2663 158.472
-19.2068 -24.8344 158.472
-19.2068 -24.4025 158.472
-19.2068 -23.9706 158.472
-19.2068 -23.5387 158.472
-19.2068 -23.1068 158.472
-19.2068 -22.6749 158.472
-19.2068 -22.243 158.472
-19.2068 -21.8111 158.472
-19.2068 -21.3792 158.472
-19.2068 -20.9473 158.472
-19.2068 -20.5154 158.472
-19.2068 -20.0835 158.472
-19.2068 -19.6516 158.472
-19.2068 -19.2197 158.472
-19.2068 -18.7878 158.472
-19.2068 -18.3559 158.472
-19.2068 -17.924 158.472
-19.2068 -17.4921 158.472
-19.2068 -17.0601 158.472
-19.2068 -16.6282 158.472
-19.2068 -16.1963 158.472
-19.2068 -15.7644 158.472
-19.2068 -15.3325 158.472
-19.2068 -14.9006 158.472
-19.2068 -14.4687 158.472
-19.2068 -14.0368 158.472
-19.2068 -13.6049 158.472
-19.2068 -13.173 158.472
-19.2068 -12.7411 158.472
-19.2068 -12.3092 158.472
-19.2068 32.1767 158.472
-19.2068 32.6086 158.472
-19.2068 33.0405 158.472
-19.2068 33.4724 158.472
-19.2068 33.9043 158.472
-19.2068 34.3362 158.472
-19.2068 34.7681 158.472
-19.2068 35.2001 158.472
-19.2068 35.632 158.472
-19.2068 36.0639 158.472
-19.2068 36.4958 158.472
-19.2068 36.9277 158.472
-19.2068 37.3596 158.472
-19.2068 37.7915 158.472
-19.2068 38.2234 158.472
-19.2068 38.6553 158.472
-19.2068 39.0872 158.472
-19.2068 39.5191 158.472
-19.2068 39.951 158.472
-19.2068 40.3829 158.472
-19.2068 40.8148 158.472
-19.2068 41.2467 158.472
-19.2068 41.6786 158.472
-19.2068 42.1105 158.472
-19.2068 42.5424 158.472
-19.2068 42.9743 158.472
-19.2068 43.4062 158.472
-19.2068 43.8381 158.472
-19.2068 44.27 158.472
-19.2068 44.7019 158.472
-19.2068 45.1338 158.472
-19.2068 45.9976 158.472
-19.2068 46.4295 158.472
-19.2068 46.8614 158.472
-19.2068 47.2933 158.472
-19.2068 47.7252 158.472
-15.5941 -31.6355 157.927
-15.5941 -31.2051 157.927
-15.5941 -30.7747 157.927
-15.5941 -30.3443 157.927
-15.5941 -29.9139 157.927
-15.5941 -29.4834 157.927
-15.5941 -29.053 157.927
-15.5941 -28.6226 157.927
-15.5941 -28.1922 157.927
-15.5941 -27.7618 157.927
-15.5941 -27.3314 157.927
-15.5941 -26.901 157.927
-15.5941 -26.4705 157.927
-15.5941 -26.0401 157.927
-15.5941 -25.6097 157.927
-15.5941 -25.1793 157.927
-15.5941 -24.7489 157.927
-15.5941 -24.3185 157.927
-15.5941 -23.888 157.927
-15.5941 -23.4576 157.927
-15.5941 -23.0272 157.927
-15.5941 -22.5968 157.927
-15.5941 -14.8493 157.927
-15.5941 -14.4189 157.927
-15.5941 -13.9885 157.927
-15.5941 -13.5581 157.927
-15.5941 -13.1277 157.927
-15.5941 -12.6973 157.927
-15.5941 -12.2668 157.927
-15.5941 -11.8364 157.927
-15.5941 -11.406 157.927
-15.5941 -10.9756 157.927
-15.5941 -10.5452 157.927
-15.5941 -10.1148 157.927
-15.5941 -9.68434 157.927
-15.5941 -9.25393 157.927
-15.5941 -8.82351 157.927
-15.5941 -8.3931 157.927
-15.5941 -7.96268 157.927
-15.5941 -7.53227 157.927
-15.5941 -7.10185 157.927
-15.5941 -6.67144 157.927
-15.5941 -6.24102 157.927
-15.5941 25.6097 157.927
-15.5941 26.0401 157.927
-15.5941 26.4705 157.927
-15.5941 26.901 157.927
-15.5941 27.3314 157.927
-15.5941 27.7618 157.927
-15.5941 28.1922 157.927
-15.5941 28.6226 157.927
-15.5941 29.053 157.927
-15.5941 29.4834 157.927
-15.5941 29.9139 157.927
-15.5941 30.3443 157.927
-15.5941 30.7747 157.927
-15.5941 31.2051 157.927
-15.5941 31.6355 157.927
-15.5941 32.0659 157.927
-15.5941 32.4964 157.927
-15.5941 32.9268 157.927
-15.5941 33.3572 157.927
-15.5941 33.7876 157.927
-15.5941 34.218 157.927
-12.0061 -7.50642 157.385
-12.0061 -7.07748 157.385
-12.0061 -6.64854 157.385
-12.0061 -6.21961 157.385
-12.0061 -5.79067 157.385
-12.0061 -5.36173 157.385
-12.0061 -4.93279 157.385
-12.0061 -4.50385 157.385
-12.0061 -4.07491 157.385
-12.0061 -3.64598 157.385
-12.0061 -3.21704 157.385
-12.0061 -2.7881 157.385
-12.0061 -2.35916 157.385
-12.0061 -1.93022 157.385
-12.0061 -1.50128 157.385
-12.0061 -1.07235 157.385
-12.0061 -0.643407 157.385
-12.0061 -0.214469 157.385
-12.0061 0.214469 157.385
-12.0061 0.643407 157.385
-12.0061 1.07235 157.385
-12.0061 17.372 157.385
-12.0061 17.8009 157.385
-12.0061 18.2299 157.385
-12.0061 18.6588 157.385
-12.0061 19.0878 157.385
-12.0061 19.5167 157.385
-12.0061 19.9456 157.385
-12.0061 20.3746 157.385
-12.0061 20.8035 157.385
-12.0061 21.2324 157.385
-12.0061 21.6614 157.385
-12.0061 22.0903 157.385
-12.0061 22.5193 157.385
-12.0061 22.9482 157.385
-12.0061 23.3771 157.385
-12.0061 23.8061 157.385
-12.0061 24.235 157.385
-12.0061 24.664 157.385
-12.0061 25.0929 157.385
-12.0061 25.5218 157.385
-12.0061 25.9508 157.385
-12.0061 26.3797 157.385
-12.0061 26.8086 157.385
-12.0061 27.2376 157.385
-12.0061 27.6665 157.385
-8.44267 -2.77856 156.847
-8.44267 -2.35109 156.847
-8.44267 -1.92362 156.847
-8.44267 -1.49615 156.847
-8.44267 -1.06868 156.847
-8.44267 -0.641207 156.847
-8.44267 -0.213736 156.847
-8.44267 0.213736 156.847
-8.44267 0.641207 156.847
-8.44267 1.06868 156.847
-8.44267 1.49615 156.847
-8.44267 1.92362 156.847
-8.44267 2.35109 156.847
-8.44267 2.77856 156.847
-8.44267 3.20604 156.847
-8.44267 3.63351 156.847
-8.44267 4.06098 156.847
-8.44267 4.48845 156.847
-8.44267 4.91592 156.847
-8.44267 5.34339 156.847
-8.44267 5.77086 156.847
-8.44267 6.19834 156.847
-8.44267 6.62581 156.847
-8.44267 7.05328 156.847
-8.44267 7.48075 156.847
-8.44267 7.90822 156.847
-8.44267 8.33569 156.847
-8.44267 8.76316 156.847
-8.44267 9.19064 156.847
-8.44267 9.61811 156.847
-8.44267 10.0456 156.847
-8.44267 10.4731 156.847
-8.44267 10.9005 156.847
-8.44267 11.328 156.847
-8.44267 11.7555 156.847
-8.44267 12.1829 156.847
-8.44267 12.6104 156.847
-8.44267 13.0379 156.847
-8.44267 13.4654 156.847
-8.44267 13.8928 156.847
-8.44267 14.3203 156.847
-8.44267 14.7478 156.847
-8.44267 15.1752 156.847
-8.44267 15.6027 156.847
-8.44267 16.0302 156.847
-8.44267 16.4577 156.847
-8.44267 16.8851 156.847
-8.44267 17.3126 156.847
-8.44267 17.7401 156.847
-8.44267 18.1675 156.847
-8.44267 18.595 156.847
-8.44267 19.0225 156.847
-8.44267 19.45 156.847
-8.44267 19.8774 156.847
-8.44267 20.3049 156.847
-8.44267 20.7324 156.847
-8.44267 21.1598 156.847
-8.44267 21.5873 156.847
-8.44267 22.0148 156.847
-4.90354 4.47315 156.312
-4.90354 4.89917 156.312
-4.90354 5.7512 156.312
-4.90354 6.17721 156.312
-4.90354 7.02924 156.312
-4.90354 7.45526 156.312
-4.90354 7.88127 156.312
-4.90354 8.30728 156.312
-4.90354 8.7333 156.312
-4.90354 9.15931 156.312
-4.90354 9.58533 156.312
-4.90354 10.0113 156.312
-4.90354 10.4374 156.312
-4.90354 10.8634 156.312
-4.90354 12.9934 156.312
-4.90354 14.2715 156.312
-4.90354 14.6975 156.312
-4.90354 15.1235 156.312
-4.90354 15.5495 156.312
-4.90354 15.9755 156.312
-203.448 -292.207 180.09
-203.448 -291.699 180.09
-203.448 -291.192 180.09
-203.448 -290.684 180.09
-203.448 -290.176 180.09
-203.448 -289.668 180.09
-203.448 -289.161 180.09
-203.448 -288.653 180.09
-203.448 -288.145 180.09
-203.448 -287.637 180.09
-203.448 -287.13 180.09
-203.448 -286.622 180.09
-203.448 -286.114 180.09
-203.448 -285.607 180.09
-203.448 -285.099 180.09
-203.448 -284.591 180.09
-203.448 -284.083 180.09
-203.448 -283.576 180.09
-203.448 -283.068 180.09
-203.448 -282.56 180.09
-203.448 -282.052 180.09
-203.448 -281.545 180.09
-203.448 -281.037 180.09
-203.448 -280.529 180.09
-203.448 -280.021 180.09
-203.448 -279.514 180.09
-203.448 -279.006 180.09
-203.448 -278.498 180.09
-203.448 -277.99 180.09
-203.448 -277.483 180.09
-203.448 -276.975 180.09
-203.448 -276.467 180.09
-203.448 -275.959 180.09
-203.448 -275.452 180.09
-203.448 -274.944 180.09
-203.448 -274.436 180.09
-203.448 -273.928 180.09
-203.448 -273.421 180.09
-203.448 -272.913 180.09
-203.448 -272.405 180.09
-203.448 -271.897 180.09
-203.448 -271.39 180.09
-203.448 -270.882 180.09
-203.448 -270.374 180.09
-203.448 -269.866 180.09
-203.448 -269.359 180.09
-203.448 -268.851 180.09
-203.448 -268.343 180.09
-203.448 -267.835 180.09
-203.448 -267.328 180.09
-203.448 -266.82 180.09
-203.448 -266.312 180.09
-203.448 -265.804 180.09
-203.448 -265.297 180.09
-203.448 -264.789 180.09
-203.448 -264.281 180.09
-203.448 -263.773 180.09
-203.448 -263.266 180.09
-203.448 -262.758 180.09
-203.448 -262.25 180.09
-203.448 -261.742 180.09
-198.458 -250.57 179.362
-198.458 -250.064 179.362
-198.458 -247.536 179.362
-198.458 -247.03 179.362
-198.458 -246.524 179.362
-198.458 -246.019 179.362
-198.458 -245.513 179.362
-198.458 -245.007 179.362
-198.458 -244.502 179.362
-198.458 -243.996 179.362
-198.458 -243.49 179.362
-198.458 -242.984 179.362
-198.458 -242.479 179.362
-198.458 -241.973 179.362
-198.458 -241.467 179.362
-198.458 -240.962 179.362
-198.458 -240.456 179.362
-198.458 -239.95 179.362
-198.458 -239.445 179.362
-198.458 -238.939 179.362
-198.458 -238.433 179.362
-198.458 -237.928 179.362
-198.458 -237.422 179.362
-198.458 -236.916 179.362
-198.458 -236.41 179.362
-198.458 -235.905 179.362
-198.458 -235.399 179.362
-198.458 -234.893 179.362
-198.458 -234.388 179.362
-198.458 -233.882 179.362
-198.458 -233.376 179.362
-198.458 -232.871 179.362
-198.458 -232.365 179.362
-198.458 -231.859 179.362
-198.458 -231.354 179.362
-198.458 -230.848 179.362
-198.458 -230.342 179.362
-198.458 -229.836 179.362
-198.458 -229.331 179.362
-198.458 -228.825 179.362
-198.458 -228.319 179.362
-198.458 -227.814 179.362
-198.458 -227.308 179.362
-198.458 -226.802 179.362
-198.458 -226.297 179.362
-198.458 -225.791 179.362
-198.458 -225.285 179.362
-198.458 -224.78 179.362
-198.458 -224.274 179.362
-198.458 -223.768 179.362
-198.458 -223.262 179.362
-198.458 -222.757 179.362
-198.458 -222.251 179.362
-198.458 -221.745 179.362
-198.458 -216.689 179.362
-198.458 -216.183 179.362
-193.509 -193.655 178.639
-193.509 -193.151 178.639
-193.509 -192.647 178.639
-193.509 -192.144 178.639
-193.509 -191.64 178.639
-193.509 -191.136 178.639
-193.509 -190.633 178.639
-193.509 -190.129 178.639
-193.509 -189.625 178.639
-193.509 -189.122 178.639
-193.509 -188.618 178.639
-193.509 -188.114 178.639
-193.509 -187.611 178.639
-193.509 -187.107 178.639
-193.509 -186.604 178.639
-193.509 -186.1 178.639
-193.509 -185.596 178.639
-193.509 -185.093 178.639
-193.509 -184.589 178.639
-193.509 -184.085 178.639
-193.509 -183.582 178.639
-193.509 -183.078 178.639
-193.509 -182.574 178.639
-193.509 -182.071 178.639
-193.509 -181.567 178.639
-193.509 -181.063 178.639
-193.509 -180.56 178.639
-193.509 -180.056 178.639
-193.509 -179.552 178.639
-193.509 -179.049 178.639
-193.509 -178.545 178.639
-193.509 -178.041 178.639
-193.509 -177.538 178.639
-193.509 -177.034 178.639
-193.509 -176.53 178.639
-193.509 -176.027 178.639
-193.509 -175.523 178.639
-193.509 -175.02 178.639
-193.509 -174.516 178.639
-193.509 -174.012 178.639
-193.509 -173.509 178.639
-193.509 -173.005 178.639
-193.509 -172.501 178.639
-193.509 -171.998 178.639
-193.509 -171.494 178.639
-193.509 -170.99 178.639
-193.509 -170.487 178.639
-193.509 -169.983 178.639
-193.509 -169.479 178.639
-193.509 -168.976 178.639
-193.509 -168.472 178.639
-193.509 -167.968 178.639
-193.509 -167.465 178.639
-193.509 -166.961 178.639
-193.509 -166.457 178.639
-193.509 -165.954 178.639
-193.509 -165.45 178.639
-193.509 -164.946 178.639
-188.599 -141.209 177.922
-188.599 -140.708 177.922
-188.599 -140.206 177.922
-188.599 -139.705 177.922
-188.599 -139.203 177.922
-188.599 -138.701 177.922
-188.599 -138.2 177.922
-188.599 -137.698 177.922
-188.599 -137.196 177.922
-188.599 -136.695 177.922
-188.599 -136.193 177.922
-188.599 -135.691 177.922
-188.599 -135.19 177.922
-188.599 -134.688 177.922
-188.599 -134.187 177.922
-188.599 -133.685 177.922
-188.599 -133.183 177.922
-188.599 -132.682 177.922
-188.599 -132.18 177.922
-188.599 -131.678 177.922
-188.599 -131.177 177.922
-188.599 -130.675 177.922
-188.599 -130.174 177.922
-188.599 -129.672 177.922
-188.599 -129.17 177.922
-188.599 -128.669 177.922
-188.599 -128.167 177.922
-188.599 -127.665 177.922
-188.599 -127.164 177.922
-188.599 -126.662 177.922
-188.599 -126.16 177.922
-188.599 -125.659 177.922
-188.599 -125.157 177.922
-188.599 -124.656 177.922
-188.599 -124.154 177.922
-188.599 -123.652 177.922
-188.599 -123.151 177.922
-188.599 -122.649 177.922
-188.599 -122.147 177.922
-188.599 -121.646 177.922
-188.599 -121.144 177.922
-188.599 -120.643 177.922
-188.599 -120.141 177.922
-188.599 -119.639 177.922
-188.599 -119.138 177.922
-188.599 -118.636 177.922
-188.599 -118.134 177.922
-188.599 -117.633 177.922
-188.599 -117.131 177.922
-188.599 -116.629 177.922
-188.599 -116.128 177.922
-188.599 -115.626 177.922
-188.599 -115.125 177.922
-188.599 -114.623 177.922
-188.599 -114.121 177.922
-188.599 -113.62 177.922
-188.599 -113.118 177.922
-188.599 -112.616 177.922
-188.599 -112.115 177.922
-188.599 -111.613 177.922
-188.599 -111.112 177.922
-188.599 -110.61 177.922
-188.599 -110.108 177.922
-188.599 -109.607 177.922
-188.599 -109.105 177.922
-188.599 -108.603 177.922
-188.599 -108.102 177.922
-188.599 -107.6 177.922
-188.599 -107.098 177.922
-188.599 -106.597 177.922
-188.599 -106.095 177.922
-188.599 -105.594 177.922
-188.599 -105.092 177.922
-188.599 -104.59 177.922
-188.599 -104.089 177.922
-188.599 -103.587 177.922
-188.599 -103.085 177.922
-183.728 -89.6831 177.211
-183.728 -89.1834 177.211
-183.728 -88.6838 177.211
-183.728 -88.1842 177.211
-183.728 -87.6845 177.211
-183.728 -87.1849 177.211
-183.728 -86.6853 177.211
-183.728 -86.1857 177.211
-183.728 -85.686 177.211
-183.728 -85.1864 177.211
-183.728 -84.6868 177.211
-183.728 -84.1872 177.211
-183.728 -83.6875 177.211
-183.728 -83.1879 177.211
-183.728 -82.6883 177.211
-183.728 -82.1886 177.211
-183.728 -81.689 177.211
-183.728 -81.1894 177.211
-183.728 -80.6898 177.211
-183.728 -80.1901 177.211
-183.728 -79.6905 177.211
-183.728 -79.1909 177.211
-183.728 -78.6913 177.211
-183.728 -78.1916 177.211
-183.728 -77.692 177.211
-183.728 -77.1924 177.211
-183.728 -76.6928 177.211
-183.728 -76.1931 177.211
-183.728 -75.6935 177.211
-183.728 -75.1939 177.211
-183.728 -74.6942 177.211
-183.728 -74.1946 177.211
-183.728 -73.695 177.211
-183.728 -73.1954 177.211
-183.728 -72.6957 177.211
-183.728 -72.1961 177.211
-183.728 -71.6965 177.211
-183.728 -71.1969 177.211
-183.728 -70.6972 177.211
-183.728 -70.1976 177.211
-183.728 -69.698 177.211
-183.728 -69.1983 177.211
-183.728 -68.6987 177.211
-183.728 -68.1991 177.211
-183.728 -67.6995 177.211
-183.728 -67.1998 177.211
-183.728 -66.7002 177.211
-183.728 -66.2006 177.211
-183.728 -65.701 177.211
-183.728 -65.2013 177.211
-183.728 -64.7017 177.211
-183.728 -64.2021 177.211
-183.728 -63.7024 177.211
-183.728 -63.2028 177.211
-183.728 -62.7032 177.211
-169.347 102.444 175.111
-169.347 102.938 175.111
-169.347 103.432 175.111
-169.347 103.925 175.111
-169.347 104.419 175.111
-169.347 104.913 175.111
-169.347 105.406 175.111
-169.347 105.9 175.111
-169.347 106.394 175.111
-169.347 106.888 175.111
-169.347 107.381 175.111
-169.347 107.875 175.111
-169.347 108.369 175.111
-169.347 108.862 175.111
-169.347 109.356 175.111
-169.347 109.85 175.111
-169.347 110.344 175.111
-169.347 110.837 175.111
-169.347 111.331 175.111
-169.347 111.825 175.111
-169.347 112.318 175.111
-169.347 112.812 175.111
-169.347 113.306 175.111
-169.347 113.799 175.111
-169.347 114.293 175.111
-169.347 114.787 175.111
-169.347 115.281 175.111
-169.347 115.774 175.111
-169.347 116.268 175.111
-169.347 116.762 175.111
-169.347 117.255 175.111
-169.347 117.749 175.111
-169.347 118.243 175.111
-169.347 118.737 175.111
-169.347 119.23 175.111
-169.347 119.724 175.111
-169.347 120.218 175.111
-169.347 120.711 175.111
-169.347 121.205 175.111
-169.347 121.699 175.111
-169.347 122.192 175.111
-169.347 122.686 175.111
-169.347 123.18 175.111
-169.347 123.674 175.111
-169.347 124.167 175.111
-169.347 124.661 175.111
-169.347 125.155 175.111
-169.347 125.648 175.111
-169.347 126.142 175.111
-169.347 126.636 175.111
-169.347 127.13 175.111
-169.347 127.623 175.111
-169.347 128.117 175.111
-169.347 128.611 175.111
-169.347 129.104 175.111
-169.347 129.598 175.111
-169.347 130.092 175.111
-169.347 130.585 175.111
-169.347 131.079 175.111
