# .PCD v0.7 - Point Cloud Data file format
VERSION 0.7
FIELDS x y z
SIZE 4 4 4
TYPE F F F
COUNT 1 1 1
WIDTH 1696
HEIGHT 1
VIEWPOINT 0 0 0 1 0 0 0
POINTS 1696
DATA ascii
-383.67599 -81.761902 256.22601
-383.67599 -81.179901 256.22601
-383.67599 -80.598 256.22601
-383.67599 -80.016098 256.22601
-383.67599 -79.434097 256.22601
-383.67599 -78.852203 256.22601
-383.67599 -78.270302 256.22601
-383.67599 -77.688301 256.22601
-383.67599 -77.1064 256.22601
-383.67599 -76.524399 256.22601
-383.67599 -75.942497 256.22601
-383.67599 -75.360603 256.22601
-383.67599 -74.778603 256.22601
-383.67599 -74.196701 256.22601
-383.67599 -73.614799 256.22601
-383.67599 -73.032799 256.22601
-383.67599 -72.450897 256.22601
-383.67599 -71.869003 256.22601
-383.67599 -71.287003 256.22601
-383.67599 -70.705101 256.22601
-383.67599 -70.123199 256.22601
-383.67599 -69.541199 256.22601
-383.67599 -68.959297 256.22601
-383.67599 -68.377403 256.22601
-383.67599 -67.795403 256.22601
-383.67599 -67.213501 256.22601
-383.67599 -66.631599 256.22601
-383.67599 -66.049599 256.22601
-383.67599 -65.467697 256.22601
-383.67599 -64.885803 256.22601
-383.67599 -64.303802 256.22601
-383.67599 -63.721901 256.22601
-383.67599 -63.1399 256.22601
-383.67599 -62.557999 256.22601
-383.67599 -59.6483 256.22601
-383.67599 -59.066399 256.22601
-383.67599 -58.484501 256.22601
-383.67599 -57.9025 256.22601
-383.67599 -57.320599 256.22601
-377.125 -46.6287 255.039
-377.125 -40.8363 255.039
-377.125 -40.257099 255.039
-377.125 -39.677799 255.039
-377.125 -39.098598 255.039
-377.125 -38.519402 255.039
-377.125 -37.940102 255.039
-377.125 -34.464699 255.039
-377.125 -33.885399 255.039
-377.125 -33.306198 255.039
-377.125 -32.727001 255.039
-377.125 -32.147701 255.039
-377.125 -31.568501 255.039
-377.125 -30.9893 255.039
-377.125 -30.41 255.039
-377.125 -29.830799 255.039
-377.125 -29.251499 255.039
-377.125 -28.6723 255.039
-377.125 -28.0931 255.039
-377.125 -27.5138 255.039
-377.125 -26.934601 255.039
-377.125 -26.355301 255.039
-377.125 -25.7761 255.039
-377.125 -25.196899 255.039
-377.125 -24.617599 255.039
-377.125 -24.038401 255.039
-377.125 -23.4592 255.039
-377.125 -22.8799 255.039
-377.125 -22.300699 255.039
-377.125 -21.721399 255.039
-377.125 -21.1422 255.039
-377.125 -20.563 255.039
-377.125 -19.9837 255.039
-377.125 -19.404499 255.039
-377.125 -18.825199 255.039
-377.125 -18.246 255.039
-377.125 -17.6668 255.039
-377.125 -17.0875 255.039
-377.125 -16.508301 255.039
-377.125 -15.9291 255.039
-377.125 -15.3498 255.039
-377.125 -14.7706 255.039
-377.125 -14.1913 255.039
-377.125 -13.6121 255.039
-377.125 -13.0329 255.039
-377.125 -12.4536 255.039
-377.125 -11.8744 255.039
-377.125 -11.2951 255.039
-377.125 -10.7159 255.039
-377.125 -10.1367 255.039
-377.125 -9.5574303 255.039
-377.125 -8.9781904 255.039
-377.125 -8.3989601 255.039
-377.125 -7.8197198 255.039
-377.125 -7.2404799 255.039
-377.125 -6.6612401 255.039
-377.125 -6.0819998 255.039
-377.125 -5.5027599 255.039
-377.125 -4.9235301 255.039
-377.125 -4.3442898 255.039
-377.125 -3.7650499 255.039
-377.125 -3.1858101 255.039
-377.125 -2.60657 255.039
-370.63501 19.8915 253.86301
-370.63501 20.4681 253.86301
-370.63501 21.044701 253.86301
-370.63501 21.621201 253.86301
-370.63501 22.1978 253.86301
-370.63501 22.774401 253.86301
-370.63501 23.350901 253.86301
-370.63501 23.9275 253.86301
-370.63501 24.504101 253.86301
-370.63501 25.080601 253.86301
-370.63501 25.6572 253.86301
-370.63501 26.233801 253.86301
-370.63501 26.810301 253.86301
-370.63501 27.3869 253.86301
-370.63501 27.963499 253.86301
-370.63501 28.540001 253.86301
-370.63501 29.1166 253.86301
-370.63501 29.693199 253.86301
-370.63501 30.269699 253.86301
-370.63501 30.8463 253.86301
-370.63501 31.422899 253.86301
-370.63501 31.999399 253.86301
-370.63501 32.576 253.86301
-370.63501 33.152599 253.86301
-370.63501 33.729099 253.86301
-370.63501 34.305698 253.86301
-370.63501 34.882301 253.86301
-370.63501 35.458801 253.86301
-370.63501 36.0354 253.86301
-370.63501 36.612 253.86301
-370.63501 37.188499 253.86301
-370.63501 37.765099 253.86301
-370.63501 38.341702 253.86301
-370.63501 38.918201 253.86301
-370.63501 39.494801 253.86301
-370.63501 40.0714 253.86301
-370.63501 40.6479 253.86301
-370.63501 41.224499 253.86301
-370.63501 41.801102 253.86301
-370.63501 42.377602 253.86301
-370.63501 42.954201 253.86301
-370.63501 43.5308 253.86301
-370.63501 44.1073 253.86301
-370.63501 44.683899 253.86301
-370.63501 45.260502 253.86301
-370.63501 45.837002 253.86301
-370.63501 46.413601 253.86301
-370.63501 46.9902 253.86301
-370.63501 47.5667 253.86301
-370.63501 48.143299 253.86301
-370.63501 48.719898 253.86301
-370.63501 49.296398 253.86301
-370.63501 49.873001 253.86301
-370.63501 50.4496 253.86301
-370.63501 51.0261 253.86301
-370.63501 51.602699 253.86301
-370.63501 52.179298 253.86301
-370.63501 52.755798 253.86301
-370.63501 53.332401 253.86301
-370.63501 53.909 253.86301
-370.63501 54.4855 253.86301
-370.63501 55.062099 253.86301
-370.63501 55.638699 253.86301
-370.63501 56.215199 253.86301
-370.63501 56.791801 253.86301
-370.63501 57.368401 253.86301
-370.63501 57.944901 253.86301
-370.63501 58.5215 253.86301
-370.63501 59.098099 253.86301
-370.63501 59.674599 253.86301
-370.63501 60.251202 253.86301
-370.63501 60.827801 253.86301
-370.63501 61.404301 253.86301
-364.20401 85.800903 252.69701
-351.51801 232.881 250.39799
-351.51801 234.588 250.39799
-351.51801 235.15601 250.39799
-351.51801 235.72501 250.39799
-351.51801 236.29401 250.39799
-351.51801 236.862 250.39799
-351.51801 237.431 250.39799
-351.51801 238 250.39799
-351.51801 238.56799 250.39799
-351.51801 239.13699 250.39799
-351.51801 239.70599 250.39799
-351.51801 240.27499 250.39799
-351.51801 240.843 250.39799
-351.51801 241.412 250.39799
-351.51801 241.981 250.39799
-351.51801 242.549 250.39799
-351.51801 243.118 250.39799
-351.51801 243.687 250.39799
-351.51801 244.255 250.39799
-351.51801 244.82401 250.39799
-351.51801 245.39301 250.39799
-351.51801 245.96201 250.39799
-351.51801 246.53 250.39799
-351.51801 247.099 250.39799
-351.51801 247.668 250.39799
-351.51801 248.23599 250.39799
-351.51801 248.80499 250.39799
-351.51801 249.37399 250.39799
-351.51801 249.942 250.39799
-351.51801 250.511 250.39799
-351.51801 251.08 250.39799
-351.51801 251.649 250.39799
-351.51801 252.217 250.39799
-351.51801 252.786 250.39799
-351.51801 253.355 250.39799
-351.51801 253.923 250.39799
-351.51801 254.492 250.39799
-351.51801 255.061 250.39799
-351.51801 255.629 250.39799
-351.51801 256.198 250.39799
-351.51801 256.767 250.39799
-351.51801 257.33499 250.39799
-351.51801 257.90399 250.39799
-351.51801 258.47299 250.39799
-351.51801 259.04199 250.39799
-351.51801 259.60999 250.39799
-351.51801 260.17899 250.39799
-351.51801 260.74799 250.39799
-351.51801 261.31601 250.39799
-351.51801 261.88501 250.39799
-351.51801 262.45401 250.39799
-351.51801 263.022 250.39799
-351.51801 263.591 250.39799
-351.51801 264.16 250.39799
-351.51801 264.729 250.39799
-351.51801 265.297 250.39799
-351.51801 265.866 250.39799
-351.51801 266.435 250.39799
-351.51801 267.00299 250.39799
-351.51801 267.57199 250.39799
-351.51801 268.14099 250.39799
-351.51801 268.70901 250.39799
-351.51801 269.27802 250.39799
-351.51801 269.84698 250.39799
-351.51801 270.41599 250.39799
-351.51801 270.98401 250.39799
-351.51801 271.55301 250.39799
-351.51801 272.12201 250.39799
-351.51801 272.69 250.39799
-351.51801 273.259 250.39799
-351.51801 273.828 250.39799
-351.51801 274.396 250.39799
-351.51801 274.965 250.39799
-351.51801 275.534 250.39799
-351.51801 276.10199 250.39799
-351.51801 276.67099 250.39799
-351.51801 277.23999 250.39799
-351.51801 277.80899 250.39799
-351.51801 278.37701 250.39799
-351.51801 278.94601 250.39799
-351.51801 279.51501 250.39799
-351.51801 280.08301 250.39799
-351.51801 280.65201 250.39799
-351.51801 281.22101 250.39799
-351.51801 281.789 250.39799
-351.51801 282.358 250.39799
-351.51801 282.927 250.39799
-351.51801 283.496 250.39799
-351.51801 284.064 250.39799
-351.51801 284.633 250.39799
-351.51801 285.202 250.39799
-351.51801 288.61401 250.39799
-351.51801 289.18301 250.39799
-351.51801 289.75101 250.39799
-351.51801 297.14401 250.39799
-351.51801 297.71301 250.39799
-345.26099 320.70801 249.26401
-345.26099 321.27399 249.26401
-345.26099 321.84 249.26401
-345.26099 323.53799 249.26401
-345.26099 324.10501 249.26401
-345.26099 324.67099 249.26401
-345.26099 325.237 249.26401
-345.26099 325.80301 249.26401
-345.26099 326.36899 249.26401
-345.26099 326.935 249.26401
-345.26099 327.50101 249.26401
-345.26099 328.06699 249.26401
-345.26099 328.634 249.26401
-345.26099 329.20001 249.26401
-279.99899 83.315102 237.435
-279.99899 83.854401 237.435
-279.99899 84.3936 237.435
-279.99899 84.932899 237.435
-274.371 84.031097 236.41499
-274.371 84.5681 236.41499
-274.371 85.105003 236.41499
-274.371 85.641998 236.41499
-274.371 86.178902 236.41499
-274.371 86.715797 236.41499
-274.371 87.2528 236.41499
-268.79199 87.4142 235.40401
-268.79199 87.948898 235.40401
-268.79199 88.483498 235.40401
-268.79199 89.018204 235.40401
-268.79199 89.552803 235.40401
-268.79199 90.087402 235.40401
-268.79199 90.622101 235.40401
-263.26099 91.300903 234.401
-263.26099 91.833199 234.401
-263.26099 92.365601 234.401
-263.26099 92.898003 234.401
-263.26099 93.430298 234.401
-263.26099 93.9627 234.401
-263.26099 94.495102 234.401
-263.26099 95.027397 234.401
-257.776 95.684601 233.407
-257.776 96.214798 233.407
-257.776 96.744904 233.407
-257.776 97.275002 233.407
-257.776 97.805099 233.407
-257.776 98.335197 233.407
-257.776 98.865303 233.407
-257.776 99.395401 233.407
-252.338 99.503502 232.422
-252.338 100.031 232.422
-252.338 100.559 232.422
-252.338 101.087 232.422
-252.338 101.615 232.422
-252.338 102.143 232.422
-252.338 102.671 232.422
-246.946 103.816 231.444
-246.946 104.342 231.444
-246.946 104.867 231.444
-246.946 105.393 231.444
-246.946 105.919 231.444
-246.946 106.444 231.444
-246.946 106.97 231.444
-246.946 107.496 231.444
-246.946 108.021 231.444
-246.946 108.547 231.444
-246.946 109.072 231.444
-246.946 109.598 231.444
-241.59801 109.663 230.47501
-241.59801 110.186 230.47501
-241.59801 110.71 230.47501
-241.59801 111.233 230.47501
-241.59801 111.756 230.47501
-241.59801 112.28 230.47501
-241.59801 112.803 230.47501
-236.29601 113.375 229.51401
-236.29601 113.897 229.51401
-236.29601 114.418 229.51401
-236.29601 114.939 229.51401
-236.29601 115.46 229.51401
-236.29601 115.982 229.51401
-236.29601 116.503 229.51401
-236.29601 117.024 229.51401
-236.29601 117.546 229.51401
-236.29601 200.427 229.51401
-236.29601 200.948 229.51401
-236.29601 201.46899 229.51401
-236.29601 201.991 229.51401
-236.29601 202.51199 229.51401
-236.29601 206.68201 229.51401
-231.037 118.096 228.561
-231.037 118.615 228.561
-231.037 119.134 228.561
-231.037 119.653 228.561
-231.037 120.172 228.561
-231.037 120.691 228.561
-231.037 121.21 228.561
-231.037 121.729 228.561
-231.037 122.248 228.561
-231.037 122.768 228.561
-231.037 123.287 228.561
-231.037 123.806 228.561
-231.037 194.923 228.561
-231.037 195.442 228.561
-231.037 195.961 228.561
-231.037 196.48 228.561
-231.037 196.99899 228.561
-231.037 197.51801 228.561
-231.037 198.037 228.561
-231.037 198.556 228.561
-231.037 199.075 228.561
-231.037 199.595 228.561
-225.82201 124.328 227.616
-225.82201 124.845 227.616
-225.82201 125.362 227.616
-225.82201 125.878 227.616
-225.82201 126.395 227.616
-225.82201 126.912 227.616
-225.82201 127.429 227.616
-225.82201 127.946 227.616
-225.82201 128.463 227.616
-225.82201 128.98 227.616
-225.82201 129.49699 227.616
-225.82201 130.01401 227.616
-225.82201 130.53101 227.616
-225.82201 131.048 227.616
-225.82201 131.565 227.616
-225.82201 132.082 227.616
-225.82201 132.599 227.616
-225.82201 133.116 227.616
-225.82201 185.845 227.616
-225.82201 186.362 227.616
-225.82201 186.879 227.616
-225.82201 187.396 227.616
-225.82201 187.91299 227.616
-225.82201 188.42999 227.616
-225.82201 188.94701 227.616
-225.82201 189.464 227.616
-225.82201 189.981 227.616
-225.82201 190.498 227.616
-225.82201 191.015 227.616
-225.82201 191.532 227.616
-225.82201 192.049 227.616
-225.82201 192.56599 227.616
-225.82201 193.08299 227.616
-220.64999 133.082 226.67799
-220.64999 133.597 226.67799
-220.64999 134.112 226.67799
-220.64999 134.627 226.67799
-220.64999 135.142 226.67799
-220.64999 135.657 226.67799
-220.64999 136.17101 226.67799
-220.64999 136.686 226.67799
-220.64999 137.201 226.67799
-220.64999 137.716 226.67799
-220.64999 138.231 226.67799
-220.64999 138.746 226.67799
-220.64999 139.25999 226.67799
-220.64999 139.77499 226.67799
-220.64999 140.28999 226.67799
-220.64999 140.80499 226.67799
-220.64999 141.32001 226.67799
-220.64999 174.26801 226.67799
-220.64999 174.783 226.67799
-220.64999 175.298 226.67799
-220.64999 175.813 226.67799
-220.64999 176.328 226.67799
-220.64999 176.843 226.67799
-220.64999 177.35699 226.67799
-220.64999 177.87199 226.67799
-220.64999 178.38699 226.67799
-220.64999 178.90199 226.67799
-220.64999 179.41701 226.67799
-220.64999 179.93201 226.67799
-220.64999 180.446 226.67799
-220.64999 180.961 226.67799
-220.64999 181.476 226.67799
-220.64999 181.991 226.67799
-220.64999 182.506 226.67799
-220.64999 183.021 226.67799
-220.64999 183.535 226.67799
-220.64999 184.05 226.67799
-220.64999 184.565 226.67799
-215.52 147.918 225.748
-215.52 148.431 225.748
-215.52 148.94299 225.748
-215.52 149.45599 225.748
-215.52 149.96899 225.748
-215.52 150.48199 225.748
-215.52 150.994 225.748
-215.52 151.507 225.748
-215.52 152.02 225.748
-215.52 152.532 225.748
-215.52 153.045 225.748
-215.52 153.558 225.748
-215.52 154.071 225.748
-215.52 154.58299 225.748
-215.52 155.09599 225.748
-215.52 155.60899 225.748
-215.52 156.121 225.748
-215.52 156.634 225.748
-215.52 157.147 225.748
-215.52 157.66 225.748
-215.52 158.172 225.748
-215.52 158.685 225.748
-215.52 159.198 225.748
-215.52 159.71001 225.748
-215.52 160.22301 225.748
-215.52 160.73599 225.748
-215.52 161.24899 225.748
-215.52 161.761 225.748
-215.52 162.274 225.748
-215.52 162.787 225.748
-215.52 163.299 225.748
-215.52 163.812 225.748
-215.52 164.325 225.748
-215.52 164.838 225.748
-215.52 165.35001 225.748
-215.52 165.86301 225.748
-215.52 166.37601 225.748
-215.52 166.888 225.748
-215.52 167.401 225.748
-215.52 167.914 225.748
-215.52 168.427 225.748
-215.52 168.939 225.748
-215.52 169.452 225.748
-215.52 169.965 225.748
-215.52 170.47701 225.748
-215.52 170.99001 225.748
-215.52 171.50301 225.748
-215.52 172.01601 225.748
-215.52 172.528 225.748
-418.95901 -348.034 255.326
-418.95901 -347.43799 255.326
-418.95901 -346.841 255.326
-418.95901 -346.245 255.326
-418.95901 -345.64801 255.326
-418.95901 -345.052 255.326
-418.95901 -344.45499 255.326
-418.95901 -343.85901 255.326
-418.95901 -343.26199 255.326
-418.95901 -342.66599 255.326
-418.95901 -342.069 255.326
-412.078 -325.604 254.114
-412.078 -325.01099 254.114
-412.078 -324.41699 254.114
-412.078 -323.823 254.114
-412.078 -323.23001 254.114
-412.078 -322.63599 254.114
-412.078 -322.04199 254.114
-412.078 -321.44901 254.114
-412.078 -320.85501 254.114
-412.078 -320.26199 254.114
-412.078 -319.668 254.114
-412.078 -319.07401 254.114
-412.078 -318.48099 254.114
-412.078 -317.88699 254.114
-412.078 -317.293 254.114
-412.078 -316.70001 254.114
-412.078 -316.10599 254.114
-412.078 -315.513 254.114
-412.078 -314.91901 254.114
-412.078 -314.32501 254.114
-412.078 -313.73199 254.114
-412.078 -313.138 254.114
-412.078 -312.54401 254.114
-412.078 -311.95099 254.114
-412.078 -311.35699 254.114
-412.078 -310.76401 254.114
-412.078 -310.17001 254.114
-412.078 -309.57599 254.114
-412.078 -308.983 254.114
-412.078 -308.38901 254.114
-412.078 -307.79501 254.114
-412.078 -307.202 254.114
-412.078 -306.608 254.114
-412.078 -306.01501 254.114
-412.078 -305.42099 254.114
-412.078 -304.827 254.114
-412.078 -304.23401 254.114
-412.078 -303.64001 254.114
-412.078 -303.04599 254.114
-412.078 -302.453 254.114
-412.078 -301.85901 254.114
-412.078 -301.26599 254.114
-412.078 -300.672 254.114
-412.078 -300.078 254.114
-412.078 -299.48499 254.114
-412.078 -298.89099 254.114
-412.078 -298.297 254.114
-412.078 -297.70401 254.114
-412.078 -297.10999 254.114
-405.26199 -275.61801 252.91299
-405.26199 -275.02701 252.91299
-405.26199 -274.436 252.91299
-405.26199 -273.845 252.91299
-405.26199 -273.255 252.91299
-405.26199 -272.664 252.91299
-405.26199 -272.073 252.91299
-405.26199 -271.48199 252.91299
-405.26199 -270.89099 252.91299
-405.26199 -270.30099 252.91299
-405.26199 -269.70999 252.91299
-405.26199 -269.11899 252.91299
-405.26199 -268.52802 252.91299
-405.26199 -267.93701 252.91299
-405.26199 -267.34601 252.91299
-405.26199 -266.75601 252.91299
-405.26199 -266.16501 252.91299
-405.26199 -265.57401 252.91299
-405.26199 -264.983 252.91299
-405.26199 -264.392 252.91299
-405.26199 -263.802 252.91299
-405.26199 -263.211 252.91299
-405.26199 -262.62 252.91299
-405.26199 -262.02899 252.91299
-405.26199 -261.43799 252.91299
-405.26199 -260.84698 252.91299
-405.26199 -260.25699 252.91299
-405.26199 -259.66599 252.91299
-405.26199 -259.07501 252.91299
-405.26199 -258.48401 252.91299
-405.26199 -257.89301 252.91299
-405.26199 -257.302 252.91299
-405.26199 -256.71201 252.91299
-405.26199 -256.121 252.91299
-405.26199 -255.53 252.91299
-405.26199 -254.939 252.91299
-405.26199 -254.34801 252.91299
-405.26199 -253.758 252.91299
-405.26199 -253.16701 252.91299
-405.26199 -252.576 252.91299
-405.26199 -251.985 252.91299
-405.26199 -251.394 252.91299
-405.26199 -250.80299 252.91299
-405.26199 -250.213 252.91299
-405.26199 -249.62199 252.91299
-405.26199 -249.03101 252.91299
-405.26199 -248.44 252.91299
-405.26199 -247.849 252.91299
-405.26199 -247.259 252.91299
-398.51001 -230.218 251.72301
-398.51001 -229.63 251.72301
-398.51001 -229.04201 251.72301
-398.51001 -228.45399 251.72301
-398.51001 -227.866 251.72301
-398.51001 -227.278 251.72301
-398.51001 -226.69 251.72301
-398.51001 -226.10201 251.72301
-398.51001 -225.51401 251.72301
-398.51001 -224.92599 251.72301
-398.51001 -224.338 251.72301
-398.51001 -223.75 251.72301
-398.51001 -223.162 251.72301
-398.51001 -222.57401 251.72301
-398.51001 -221.98599 251.72301
-398.51001 -221.39799 251.72301
-398.51001 -220.81 251.72301
-398.51001 -220.222 251.72301
-398.51001 -219.633 251.72301
-398.51001 -219.045 251.72301
-398.51001 -218.457 251.72301
-398.51001 -217.869 251.72301
-398.51001 -217.28101 251.72301
-398.51001 -216.69299 251.72301
-398.51001 -216.105 251.72301
-398.51001 -215.517 251.72301
-398.51001 -214.929 251.72301
-398.51001 -214.341 251.72301
-398.51001 -213.75301 251.72301
-398.51001 -213.16499 251.72301
-398.51001 -212.577 251.72301
-398.51001 -211.989 251.72301
-398.51001 -211.401 251.72301
-398.51001 -210.813 251.72301
-398.51001 -210.22501 251.72301
-398.51001 -209.63699 251.72301
-398.51001 -209.049 251.72301
-398.51001 -208.461 251.72301
-398.51001 -207.873 251.72301
-398.51001 -207.285 251.72301
-398.51001 -206.69701 251.72301
-398.51001 -206.10899 251.72301
-398.51001 -205.52 251.72301
-398.51001 -204.93201 251.72301
-398.51001 -204.34399 251.72301
-391.82101 -181.147 250.54401
-391.82101 -180.561 250.54401
-391.82101 -179.976 250.54401
-391.82101 -179.39101 250.54401
-391.82101 -178.80499 250.54401
-391.82101 -178.22 250.54401
-391.82101 -177.63499 250.54401
-391.82101 -177.05 250.54401
-391.82101 -176.464 250.54401
-391.82101 -175.879 250.54401
-391.82101 -175.29401 250.54401
-391.82101 -174.70799 250.54401
-391.82101 -174.123 250.54401
-391.82101 -173.53799 250.54401
-391.82101 -172.953 250.54401
-391.82101 -172.367 250.54401
-391.82101 -171.782 250.54401
-391.82101 -171.19701 250.54401
-391.82101 -170.61099 250.54401
-391.82101 -170.026 250.54401
-391.82101 -169.44099 250.54401
-391.82101 -168.856 250.54401
-391.82101 -168.27 250.54401
-391.82101 -167.685 250.54401
-391.82101 -167.10001 250.54401
-391.82101 -166.51401 250.54401
-391.82101 -165.929 250.54401
-391.82101 -165.34399 250.54401
-391.82101 -164.759 250.54401
-391.82101 -164.173 250.54401
-391.82101 -163.588 250.54401
-391.82101 -163.00301 250.54401
-391.82101 -162.41701 250.54401
-391.82101 -161.832 250.54401
-391.82101 -161.24699 250.54401
-391.82101 -160.662 250.54401
-391.82101 -160.076 250.54401
-391.82101 -159.491 250.54401
-391.82101 -158.90601 250.54401
-391.82101 -158.32001 250.54401
-391.82101 -157.735 250.54401
-391.82101 -157.14999 250.54401
-391.82101 -156.565 250.54401
-391.82101 -155.979 250.54401
-391.82101 -155.394 250.54401
-391.82101 -154.80901 250.54401
-391.82101 -154.22301 250.54401
-391.82101 -153.638 250.54401
-391.82101 -153.05299 250.54401
-391.82101 -152.468 250.54401
-391.82101 -151.882 250.54401
-385.19501 -126.124 249.377
-385.19501 -125.542 249.377
-385.19501 -124.959 249.377
-385.19501 -124.377 249.377
-385.19501 -123.794 249.377
-385.19501 -123.212 249.377
-385.19501 -122.629 249.377
-385.19501 -122.046 249.377
-385.19501 -121.464 249.377
-385.19501 -120.881 249.377
-385.19501 -120.299 249.377
-385.19501 -119.716 249.377
-385.19501 -119.134 249.377
-385.19501 -118.551 249.377
-385.19501 -117.968 249.377
-385.19501 -117.386 249.377
-385.19501 -116.803 249.377
-385.19501 -116.221 249.377
-385.19501 -115.638 249.377
-385.19501 -115.056 249.377
-385.19501 -114.473 249.377
-385.19501 -113.891 249.377
-385.19501 -113.308 249.377
-385.19501 -112.725 249.377
-385.19501 -112.143 249.377
-385.19501 -111.56 249.377
-385.19501 -110.978 249.377
-385.19501 -110.395 249.377
-385.19501 -109.813 249.377
-385.19501 -109.23 249.377
-385.19501 -108.647 249.377
-385.19501 -108.065 249.377
-385.19501 -107.482 249.377
-385.19501 -106.9 249.377
-385.19501 -106.317 249.377
-385.19501 -105.735 249.377
-385.19501 -105.152 249.377
-385.19501 -104.57 249.377
-385.19501 -103.987 249.377
-385.19501 -103.404 249.377
-385.19501 -102.822 249.377
-385.19501 -102.239 249.377
-385.19501 -101.657 249.377
-385.19501 -101.074 249.377
-385.19501 -100.492 249.377
-385.19501 -99.909103 249.377
-385.19501 -99.3265 249.377
-385.19501 -98.744003 249.377
-385.19501 -98.1614 249.377
-385.19501 -97.578903 249.377
-385.19501 -96.9963 249.377
-385.19501 -96.413696 249.377
-385.19501 -95.8312 249.377
-385.19501 -95.248596 249.377
-378.63 -77.411003 248.22
-378.63 -76.8312 248.22
-378.63 -76.251297 248.22
-378.63 -75.671501 248.22
-378.63 -75.091599 248.22
-378.63 -74.511703 248.22
-378.63 -73.9319 248.22
-378.63 -73.351997 248.22
-378.63 -72.772202 248.22
-378.63 -72.192299 248.22
-378.63 -71.612503 248.22
-378.63 -71.0326 248.22
-378.63 -70.452698 248.22
-378.63 -69.872902 248.22
-378.63 -69.292999 248.22
-378.63 -68.713203 248.22
-378.63 -68.133301 248.22
-378.63 -67.553398 248.22
-378.63 -66.973602 248.22
-378.63 -66.3937 248.22
-378.63 -65.813904 248.22
-378.63 -65.234001 248.22
-378.63 -64.654198 248.22
-378.63 -64.074303 248.22
-378.63 -63.4944 248.22
-378.63 -62.9146 248.22
-378.63 -62.334702 248.22
-378.63 -61.754902 248.22
-378.63 -61.174999 248.22
-378.63 -60.5952 248.22
-378.63 -60.015301 248.22
-378.63 -59.435398 248.22
-378.63 -58.855598 248.22
-378.63 -58.2757 248.22
-378.63 -57.6959 248.22
-378.63 -57.116001 248.22
-378.63 -56.536098 248.22
-378.63 -55.956299 248.22
-378.63 -55.3764 248.22
-378.63 -54.7966 248.22
-378.63 -54.216702 248.22
-378.63 -53.636902 248.22
-378.63 -53.056999 248.22
-378.63 -52.4771 248.22
-378.63 -51.897301 248.22
-378.63 -51.317402 248.22
-378.63 -50.737598 248.22
-378.63 -50.1577 248.22
-378.63 -49.5779 248.22
-378.63 -48.998001 248.22
-378.63 -48.418098 248.22
-378.63 -47.838299 248.22
-378.63 -47.2584 248.22
-378.63 -46.6786 248.22
-378.63 -46.098701 248.22
-378.63 -45.518799 248.22
-372.12601 -19.335501 247.07401
-372.12601 -18.7584 247.07401
-372.12601 -18.1812 247.07401
-372.12601 -17.604 247.07401
-372.12601 -17.0268 247.07401
-372.12601 -16.4496 247.07401
-372.12601 -15.8725 247.07401
-372.12601 -15.2953 247.07401
-372.12601 -14.7181 247.07401
-372.12601 -14.1409 247.07401
-372.12601 -13.5637 247.07401
-372.12601 -12.9866 247.07401
-372.12601 -12.4094 247.07401
-372.12601 -11.8322 247.07401
-372.12601 -11.255 247.07401
-372.12601 -10.6778 247.07401
-372.12601 -10.1007 247.07401
-372.12601 -9.5234804 247.07401
-372.12601 -8.9462996 247.07401
-372.12601 -8.3691196 247.07401
-372.12601 -7.7919402 247.07401
-372.12601 -7.2147598 247.07401
-372.12601 -6.6375799 247.07401
-372.12601 -6.06039 247.07401
-372.12601 -5.4832101 247.07401
-372.12601 -4.9060302 247.07401
-372.12601 -4.3288498 247.07401
-372.12601 -3.7516699 247.07401
-372.12601 -3.17449 247.07401
-372.12601 -2.5973101 247.07401
-372.12601 -2.0201299 247.07401
-372.12601 -1.44295 247.07401
-372.12601 -0.865771 247.07401
-372.12601 -0.28859001 247.07401
-372.12601 0.28859001 247.07401
-372.12601 0.865771 247.07401
-372.12601 1.44295 247.07401
-372.12601 2.0201299 247.07401
-372.12601 2.5973101 247.07401
-372.12601 3.17449 247.07401
-372.12601 3.7516699 247.07401
-372.12601 4.3288498 247.07401
-372.12601 4.9060302 247.07401
-372.12601 5.4832101 247.07401
-372.12601 6.06039 247.07401
-372.12601 6.6375799 247.07401
-372.12601 7.2147598 247.07401
-372.12601 7.7919402 247.07401
-372.12601 8.3691196 247.07401
-372.12601 8.9462996 247.07401
-372.12601 9.5234804 247.07401
-372.12601 10.1007 247.07401
-372.12601 10.6778 247.07401
-372.12601 11.255 247.07401
-372.12601 11.8322 247.07401
-372.12601 12.4094 247.07401
-372.12601 12.9866 247.07401
-372.12601 13.5637 247.07401
-365.681 42.802299 245.938
-365.681 43.376801 245.938
-365.681 43.951401 245.938
-365.681 44.525902 245.938
-365.681 45.100399 245.938
-365.681 45.6749 245.938
-365.681 46.2495 245.938
-365.681 46.824001 245.938
-365.681 47.398499 245.938
-365.681 47.973099 245.938
-365.681 48.5476 245.938
-365.681 49.122101 245.938
-365.681 49.696602 245.938
-365.681 50.271198 245.938
-365.681 50.845699 245.938
-365.681 51.4202 245.938
-365.681 51.994701 245.938
-365.681 52.569302 245.938
-365.681 53.143799 245.938
-365.681 53.7183 245.938
-365.681 54.2929 245.938
-365.681 54.867401 245.938
-365.681 55.441898 245.938
-365.681 56.016399 245.938
-365.681 56.591 245.938
-365.681 57.165501 245.938
-365.681 57.740002 245.938
-365.681 58.314602 245.938
-365.681 58.889099 245.938
-365.681 59.4636 245.938
-365.681 60.038101 245.938
-365.681 60.612701 245.938
-365.681 61.187199 245.938
-365.681 61.7617 245.938
-365.681 62.336201 245.938
-365.681 62.910801 245.938
-365.681 63.485298 245.938
-365.681 64.059799 245.938
-365.681 64.634399 245.938
-365.681 65.2089 245.938
-365.681 65.783401 245.938
-365.681 66.357903 245.938
-365.681 66.932503 245.938
-365.681 67.507004 245.938
-365.681 68.081497 245.938
-365.681 68.655998 245.938
-365.681 69.230598 245.938
-365.681 69.805099 245.938
-365.681 70.379601 245.938
-365.681 70.954201 245.938
-365.681 71.528702 245.938
-365.681 72.103203 245.938
-365.681 72.677696 245.938
-365.681 73.252296 245.938
-365.681 73.826797 245.938
-365.681 74.401299 245.938
-365.681 74.975899 245.938
-365.681 75.5504 245.938
-365.681 76.124901 245.938
-365.681 76.699402 245.938
-365.681 77.274002 245.938
-365.681 77.848503 245.938
-365.681 78.422997 245.938
-365.681 78.997498 245.938
-365.681 79.572098 245.938
-365.681 80.146599 245.938
-365.681 80.7211 245.938
-365.681 81.2957 245.938
-365.681 81.870201 245.938
-365.681 82.444702 245.938
-365.681 83.019203 245.938
-365.681 83.593803 245.938
-365.681 84.168297 245.938
-352.96899 228.57201 243.698
-352.96899 229.14101 243.698
-346.69901 256.43799 242.593
-346.69901 257.005 242.593
-346.69901 257.57101 242.593
-346.69901 258.138 242.593
-346.69901 259.83801 242.593
-346.69901 260.405 242.593
-346.69901 260.97198 242.593
-346.69901 261.53799 242.593
-346.69901 262.10501 242.593
-346.69901 262.672 242.593
-346.69901 263.23801 242.593
-346.69901 263.80499 242.593
-346.69901 264.37201 242.593
-346.69901 264.939 242.593
-346.69901 266.07199 242.593
-346.69901 266.63901 242.593
-346.69901 267.20499 242.593
-346.69901 267.772 242.593
-346.69901 268.33899 242.593
-346.69901 268.905 242.593
-346.69901 269.47198 242.593
-346.69901 270.039 242.593
-346.69901 270.60599 242.593
-346.69901 271.172 242.593
-346.69901 271.73901 242.593
-346.69901 272.306 242.593
-346.69901 272.87201 242.593
-346.69901 273.439 242.593
-346.69901 274.00601 242.593
-346.69901 274.573 242.593
-346.69901 275.13901 242.593
-346.69901 275.70599 242.593
-346.69901 276.27301 242.593
-346.69901 276.83899 242.593
-346.69901 277.40601 242.593
-346.69901 277.97299 242.593
-346.69901 278.54001 242.593
-346.69901 279.10599 242.593
-346.69901 279.673 242.593
-346.69901 280.23999 242.593
-346.69901 280.806 242.593
-346.69901 281.37299 242.593
-346.69901 281.94 242.593
-346.69901 282.50699 242.593
-346.69901 283.073 242.593
-346.69901 283.64001 242.593
-346.69901 284.207 242.593
-346.69901 284.77301 242.593
-346.69901 285.34 242.593
-346.69901 285.90701 242.593
-346.69901 286.474 242.593
-346.69901 287.04001 242.593
-346.69901 287.60699 242.593
-346.69901 288.17401 242.593
-346.69901 288.73999 242.593
-346.69901 289.30701 242.593
-346.69901 289.87399 242.593
-346.69901 290.44101 242.593
-346.69901 291.00699 242.593
-346.69901 291.57401 242.593
-346.69901 292.14099 242.593
-346.69901 292.707 242.593
-346.69901 293.27399 242.593
-346.69901 293.841 242.593
-346.69901 294.40799 242.593
-346.69901 294.974 242.593
-346.69901 295.54099 242.593
-346.69901 296.108 242.593
-346.69901 296.67401 242.593
-346.69901 297.241 242.593
-346.69901 297.80801 242.593
-346.69901 298.375 242.593
-346.69901 298.94101 242.593
-346.69901 299.508 242.593
-346.69901 300.07501 242.593
-346.69901 300.64099 242.593
-346.69901 301.20801 242.593
-346.69901 301.77499 242.593
-346.69901 302.34201 242.593
-346.69901 302.90799 242.593
-346.69901 303.47501 242.593
-346.69901 304.04199 242.593
-346.69901 304.608 242.593
-346.69901 305.17499 242.593
-346.69901 305.742 242.593
-346.69901 306.30899 242.593
-346.69901 306.875 242.593
-346.69901 307.44199 242.593
-346.69901 308.009 242.593
-346.69901 308.57501 242.593
-346.69901 309.142 242.593
-346.69901 309.70901 242.593
-346.69901 310.276 242.593
-346.69901 310.84201 242.593
-346.69901 311.409 242.593
-346.69901 311.97601 242.593
-346.69901 312.54199 242.593
-346.69901 313.10901 242.593
-346.69901 313.67599 242.593
-346.69901 314.24301 242.593
-346.69901 314.80899 242.593
-346.69901 315.37601 242.593
-346.69901 315.94299 242.593
-346.69901 316.509 242.593
-346.69901 317.07599 242.593
-346.69901 317.64301 242.593
-346.69901 318.20999 242.593
-346.69901 318.776 242.593
-346.69901 319.34299 242.593
-346.69901 319.91 242.593
-346.69901 320.47601 242.593
-346.69901 321.043 242.593
-281.30301 82.858299 231.069
-275.66501 81.9646 230.076
-275.66501 82.501999 230.076
-275.66501 83.039497 230.076
-275.66501 83.577003 230.076
-275.66501 84.114403 230.076
-270.07501 82.683998 229.091
-270.07501 83.219101 229.091
-270.07501 83.754303 229.091
-270.07501 84.289497 229.091
-270.07501 84.824699 229.091
-270.07501 85.359802 229.091
-270.07501 85.894997 229.091
-264.53201 85.528801 228.114
-264.53201 86.061699 228.114
-264.53201 86.594597 228.114
-264.53201 87.127502 228.114
-264.53201 87.6604 228.114
-264.53201 88.193298 228.114
-264.53201 88.726196 228.114
-264.53201 89.259003 228.114
-264.53201 89.791901 228.114
-259.03699 89.941399 227.146
-259.03699 90.472 227.146
-259.03699 91.002701 227.146
-259.03699 91.533302 227.146
-259.03699 92.063904 227.146
-259.03699 92.594498 227.146
-259.03699 93.125198 227.146
-259.03699 93.6558 227.146
-259.03699 94.186401 227.146
-253.588 94.316704 226.186
-253.588 94.8451 226.186
-253.588 95.373398 226.186
-253.588 95.901802 226.186
-253.588 96.430199 226.186
-253.588 96.958603 226.186
-253.588 97.487 226.186
-253.588 98.015404 226.186
-248.185 98.655098 225.23399
-248.185 99.181297 225.23399
-248.185 99.707397 225.23399
-248.185 100.234 225.23399
-248.185 100.76 225.23399
-248.185 101.286 225.23399
-248.185 101.812 225.23399
-248.185 102.338 225.23399
-248.185 102.864 225.23399
-248.185 103.391 225.23399
-248.185 103.917 225.23399
-242.827 105.053 224.289
-242.827 105.577 224.289
-242.827 106.101 224.289
-242.827 106.625 224.289
-242.827 107.149 224.289
-242.827 107.673 224.289
-242.827 108.197 224.289
-242.827 108.721 224.289
-237.51401 108.267 223.353
-237.51401 108.789 223.353
-237.51401 109.31 223.353
-237.51401 109.832 223.353
-237.51401 110.354 223.353
-237.51401 110.876 223.353
-237.51401 111.397 223.353
-237.51401 111.919 223.353
-237.51401 112.441 223.353
-237.51401 112.963 223.353
-237.51401 199.05499 223.353
-237.51401 199.576 223.353
-232.246 113.013 222.425
-232.246 113.532 222.425
-232.246 114.052 222.425
-232.246 114.572 222.425
-232.246 115.091 222.425
-232.246 115.611 222.425
-232.246 116.13 222.425
-232.246 116.65 222.425
-232.246 117.17 222.425
-232.246 117.689 222.425
-232.246 118.209 222.425
-232.246 194.59 222.425
-232.246 195.10899 222.425
-232.246 195.629 222.425
-232.246 196.149 222.425
-232.246 196.668 222.425
-232.246 197.188 222.425
-232.246 197.707 222.425
-232.246 198.22701 222.425
-227.02 118.237 221.504
-227.02 118.754 221.504
-227.02 119.272 221.504
-227.02 119.789 221.504
-227.02 120.307 221.504
-227.02 120.824 221.504
-227.02 121.342 221.504
-227.02 121.859 221.504
-227.02 122.377 221.504
-227.02 122.894 221.504
-227.02 123.411 221.504
-227.02 123.929 221.504
-227.02 124.446 221.504
-227.02 188.092 221.504
-227.02 188.61 221.504
-227.02 189.127 221.504
-227.02 189.645 221.504
-227.02 190.162 221.504
-227.02 190.67999 221.504
-227.02 191.19701 221.504
-227.02 191.715 221.504
-227.02 192.23199 221.504
-227.02 192.74899 221.504
-227.02 193.267 221.504
-227.02 193.784 221.504
-227.02 194.302 221.504
-221.838 123.933 220.591
-221.838 124.449 220.591
-221.838 124.964 220.591
-221.838 125.479 220.591
-221.838 125.995 220.591
-221.838 126.51 220.591
-221.838 127.025 220.591
-221.838 127.54 220.591
-221.838 128.056 220.591
-221.838 128.571 220.591
-221.838 129.086 220.591
-221.838 129.60201 220.591
-221.838 130.117 220.591
-221.838 130.632 220.591
-221.838 180.103 220.591
-221.838 180.618 220.591
-221.838 181.133 220.591
-221.838 181.649 220.591
-221.838 182.164 220.591
-221.838 182.679 220.591
-221.838 183.194 220.591
-221.838 183.71001 220.591
-221.838 184.22501 220.591
-221.838 184.74001 220.591
-221.838 185.256 220.591
-221.838 185.771 220.591
-221.838 186.286 220.591
-221.838 186.802 220.591
-221.838 187.317 220.591
-216.69901 131.12199 219.685
-216.69901 131.636 219.685
-216.69901 132.149 219.685
-216.69901 132.662 219.685
-216.69901 133.175 219.685
-216.69901 133.688 219.685
-216.69901 134.202 219.685
-216.69901 134.715 219.685
-216.69901 135.228 219.685
-216.69901 135.741 219.685
-216.69901 136.254 219.685
-216.69901 136.76801 219.685
-216.69901 137.28101 219.685
-216.69901 137.79401 219.685
-216.69901 138.30701 219.685
-216.69901 138.82001 219.685
-216.69901 139.334 219.685
-216.69901 139.847 219.685
-216.69901 140.36 219.685
-216.69901 140.873 219.685
-216.69901 141.386 219.685
-216.69901 141.89999 219.685
-216.69901 142.41299 219.685
-216.69901 142.92599 219.685
-216.69901 143.439 219.685
-216.69901 143.952 219.685
-216.69901 144.466 219.685
-216.69901 144.979 219.685
-216.69901 145.492 219.685
-216.69901 146.005 219.685
-216.69901 146.51801 219.685
-216.69901 147.032 219.685
-216.69901 147.545 219.685
-216.69901 148.058 219.685
-216.69901 148.571 219.685
-216.69901 149.084 219.685
-216.69901 149.59801 219.685
-216.69901 150.11099 219.685
-216.69901 150.62399 219.685
-216.69901 151.13699 219.685
-216.69901 151.64999 219.685
-216.69901 152.164 219.685
-216.69901 152.677 219.685
-216.69901 153.19 219.685
-216.69901 153.703 219.685
-216.69901 154.216 219.685
-216.69901 154.73 219.685
-216.69901 155.243 219.685
-216.69901 155.756 219.685
-216.69901 156.269 219.685
-216.69901 156.782 219.685
-216.69901 157.29601 219.685
-216.69901 157.80901 219.685
-216.69901 158.32201 219.685
-216.69901 158.83501 219.685
-216.69901 159.862 219.685
-216.69901 160.375 219.685
-216.69901 160.888 219.685
-216.69901 161.401 219.685
-216.69901 161.914 219.685
-216.69901 162.42799 219.685
-216.69901 162.94099 219.685
-216.69901 163.45399 219.685
-216.69901 163.967 219.685
-216.69901 164.48 219.685
-216.69901 164.994 219.685
-216.69901 165.507 219.685
-216.69901 166.02 219.685
-216.69901 166.533 219.685
-216.69901 167.04601 219.685
-216.69901 167.56 219.685
-216.69901 168.073 219.685
-216.69901 168.586 219.685
-216.69901 169.099 219.685
-216.69901 169.612 219.685
-216.69901 170.12601 219.685
-216.69901 170.63901 219.685
-216.69901 171.15199 219.685
-216.69901 171.66499 219.685
-216.69901 172.17799 219.685
-216.69901 172.692 219.685
-216.69901 173.205 219.685
-216.69901 173.718 219.685
-216.69901 174.231 219.685
-216.69901 174.744 219.685
-216.69901 175.258 219.685
-216.69901 175.771 219.685
-216.69901 176.284 219.685
-216.69901 176.797 219.685
-216.69901 177.31 219.685
-216.69901 177.82401 219.685
-216.69901 178.33701 219.685
-216.69901 178.85001 219.685
-211.601 151.541 218.787
-211.601 152.05299 218.787
-211.601 152.564 218.787
-211.601 153.075 218.787
-211.601 153.586 218.787
-413.659 -342.00699 247.12399
-413.659 -341.41199 247.12399
-413.659 -340.81799 247.12399
-413.659 -340.224 247.12399
-413.659 -339.63 247.12399
-413.659 -339.035 247.12399
-413.659 -338.44101 247.12399
-413.659 -337.84698 247.12399
-413.659 -337.25201 247.12399
-413.659 -336.65799 247.12399
-413.659 -336.064 247.12399
-413.659 -335.47 247.12399
-413.659 -334.875 247.12399
-413.659 -334.28101 247.12399
-413.659 -333.68701 247.12399
-413.659 -333.09201 247.12399
-413.659 -332.49799 247.12399
-413.659 -331.90399 247.12399
-413.659 -331.31 247.12399
-413.659 -330.715 247.12399
-413.659 -330.121 247.12399
-413.659 -329.52701 247.12399
-413.659 -328.93301 247.12399
-413.659 -328.33801 247.12399
-413.659 -327.74399 247.12399
-413.659 -327.14999 247.12399
-413.659 -326.55499 247.12399
-413.659 -325.961 247.12399
-413.659 -325.367 247.12399
-413.659 -324.77301 247.12399
-413.659 -324.17801 247.12399
-413.659 -323.58401 247.12399
-413.659 -322.98999 247.12399
-413.659 -322.39499 247.12399
-413.659 -321.80099 247.12399
-413.659 -321.207 247.12399
-413.659 -320.61301 247.12399
-413.659 -320.01801 247.12399
-413.659 -319.42401 247.12399
-413.659 -318.82999 247.12399
-413.659 -318.23599 247.12399
-413.659 -317.64099 247.12399
-413.659 -317.047 247.12399
-413.659 -316.453 247.12399
-413.659 -315.858 247.12399
-413.659 -315.26401 247.12399
-413.659 -314.67001 247.12399
-413.659 -314.07599 247.12399
-413.659 -313.48099 247.12399
-406.828 -290.70499 245.955
-406.828 -290.11401 245.955
-406.828 -289.522 245.955
-406.828 -288.931 245.955
-406.828 -288.33899 245.955
-406.828 -287.74799 245.955
-406.828 -287.15601 245.955
-406.828 -286.565 245.955
-406.828 -285.974 245.955
-406.828 -285.38199 245.955
-406.828 -284.79099 245.955
-406.828 -284.19901 245.955
-406.828 -283.608 245.955
-406.828 -283.01599 245.955
-406.828 -282.42499 245.955
-406.828 -281.83301 245.955
-406.828 -281.242 245.955
-406.828 -280.64999 245.955
-406.828 -280.05899 245.955
-406.828 -279.46701 245.955
-406.828 -278.87601 245.955
-406.828 -278.284 245.955
-406.828 -277.69299 245.955
-406.828 -277.10199 245.955
-406.828 -276.51001 245.955
-406.828 -275.91901 245.955
-406.828 -275.327 245.955
-406.828 -274.73599 245.955
-406.828 -274.14401 245.955
-406.828 -273.55301 245.955
-406.828 -272.961 245.955
-406.828 -272.37 245.955
-406.828 -271.77802 245.955
-406.828 -271.18701 245.955
-406.828 -270.595 245.955
-406.828 -270.004 245.955
-406.828 -269.41299 245.955
-406.828 -268.82101 245.955
-406.828 -268.23001 245.955
-406.828 -267.638 245.955
-406.828 -267.047 245.955
-406.828 -266.45499 245.955
-406.828 -265.86401 245.955
-406.828 -265.272 245.955
-400.061 -251.07201 244.79601
-400.061 -250.483 244.79601
-400.061 -249.895 244.79601
-400.061 -249.306 244.79601
-400.061 -248.717 244.79601
-400.061 -248.129 244.79601
-400.061 -246.36301 244.79601
-400.061 -245.774 244.79601
-400.061 -245.185 244.79601
-400.061 -244.597 244.79601
-400.061 -244.008 244.79601
-400.061 -243.41901 244.79601
-400.061 -242.83 244.79601
-400.061 -242.242 244.79601
-400.061 -241.653 244.79601
-400.061 -241.064 244.79601
-400.061 -240.476 244.79601
-400.061 -239.88699 244.79601
-400.061 -239.298 244.79601
-400.061 -238.71001 244.79601
-400.061 -238.121 244.79601
-400.061 -237.532 244.79601
-400.061 -236.944 244.79601
-400.061 -236.355 244.79601
-400.061 -235.76601 244.79601
-400.061 -235.17799 244.79601
-400.061 -234.589 244.79601
-400.061 -234 244.79601
-400.061 -233.412 244.79601
-400.061 -232.823 244.79601
-400.061 -232.23399 244.79601
-400.061 -231.646 244.79601
-400.061 -231.05701 244.79601
-400.061 -230.468 244.79601
-400.061 -229.88 244.79601
-400.061 -229.291 244.79601
-400.061 -228.702 244.79601
-400.061 -228.11301 244.79601
-400.061 -227.52499 244.79601
-400.061 -226.936 244.79601
-400.061 -226.347 244.79601
-400.061 -225.759 244.79601
-400.061 -225.17 244.79601
-400.061 -224.58099 244.79601
-400.061 -223.993 244.79601
-400.061 -223.40401 244.79601
-393.358 -197.162 243.649
-393.358 -196.576 243.649
-393.358 -195.99001 243.649
-393.358 -195.405 243.649
-393.358 -194.819 243.649
-393.358 -194.233 243.649
-393.358 -193.647 243.649
-393.358 -193.061 243.649
-393.358 -192.47501 243.649
-393.358 -191.88901 243.649
-393.358 -191.30299 243.649
-393.358 -190.717 243.649
-393.358 -190.131 243.649
-393.358 -189.545 243.649
-393.358 -188.959 243.649
-393.358 -188.373 243.649
-393.358 -187.78799 243.649
-393.358 -187.202 243.649
-393.358 -186.616 243.649
-393.358 -186.03 243.649
-393.358 -185.444 243.649
-393.358 -184.858 243.649
-393.358 -184.272 243.649
-393.358 -183.686 243.649
-393.358 -183.10001 243.649
-393.358 -182.51401 243.649
-393.358 -181.92799 243.649
-393.358 -181.342 243.649
-393.358 -180.757 243.649
-393.358 -180.17101 243.649
-393.358 -179.58501 243.649
-393.358 -178.99899 243.649
-393.358 -178.41299 243.649
-393.358 -177.827 243.649
-393.358 -177.241 243.649
-393.358 -176.655 243.649
-393.358 -176.069 243.649
-393.358 -175.483 243.649
-393.358 -174.897 243.649
-393.358 -174.311 243.649
-393.358 -173.72501 243.649
-386.71701 -147.838 242.51199
-386.71701 -147.255 242.51199
-386.71701 -146.672 242.51199
-386.71701 -146.088 242.51199
-386.71701 -145.505 242.51199
-386.71701 -144.922 242.51199
-386.71701 -144.339 242.51199
-386.71701 -143.756 242.51199
-386.71701 -143.172 242.51199
-386.71701 -142.589 242.51199
-386.71701 -142.006 242.51199
-386.71701 -141.423 242.51199
-386.71701 -140.84 242.51199
-386.71701 -140.256 242.51199
-386.71701 -139.673 242.51199
-386.71701 -139.09 242.51199
-386.71701 -138.507 242.51199
-386.71701 -137.924 242.51199
-386.71701 -137.341 242.51199
-386.71701 -136.757 242.51199
-386.71701 -136.174 242.51199
-386.71701 -135.591 242.51199
-386.71701 -135.008 242.51199
-386.71701 -134.425 242.51199
-386.71701 -133.841 242.51199
-386.71701 -133.258 242.51199
-386.71701 -132.675 242.51199
-386.71701 -132.092 242.51199
-386.71701 -131.509 242.51199
-386.71701 -130.925 242.51199
-386.71701 -130.342 242.51199
-386.71701 -129.759 242.51199
-386.71701 -129.17599 242.51199
-386.71701 -128.593 242.51199
-386.71701 -128.00999 242.51199
-386.71701 -127.426 242.51199
-386.71701 -126.843 242.51199
-386.71701 -126.26 242.51199
-386.71701 -125.677 242.51199
-386.71701 -125.094 242.51199
-386.71701 -124.51 242.51199
-386.71701 -123.927 242.51199
-386.71701 -123.344 242.51199
-386.71701 -122.761 242.51199
-386.71701 -122.178 242.51199
-386.71701 -121.594 242.51199
-386.71701 -121.011 242.51199
-386.71701 -120.428 242.51199
-380.138 -102.455 241.386
-380.138 -98.971603 241.386
-380.138 -98.391197 241.386
-380.138 -97.810699 241.386
-380.138 -97.230202 241.386
-380.138 -96.649696 241.386
-380.138 -96.069199 241.386
-380.138 -95.4888 241.386
-380.138 -94.908302 241.386
-380.138 -94.327797 241.386
-380.138 -93.747299 241.386
-380.138 -93.166801 241.386
-380.138 -92.586403 241.386
-380.138 -92.005898 241.386
-380.138 -91.4254 241.386
-380.138 -90.844902 241.386
-380.138 -90.264397 241.386
-380.138 -89.683998 241.386
-380.138 -89.1035 241.386
-380.138 -88.523003 241.386
-380.138 -87.942497 241.386
-380.138 -87.362099 241.386
-380.138 -86.781601 241.386
-380.138 -86.201103 241.386
-380.138 -85.620598 241.386
-380.138 -85.0401 241.386
-380.138 -84.459702 241.386
-380.138 -83.879204 241.386
-380.138 -83.298698 241.386
-380.138 -82.718201 241.386
-380.138 -82.137703 241.386
-380.138 -81.557297 241.386
-380.138 -80.976799 241.386
-380.138 -80.396301 241.386
-380.138 -79.815804 241.386
-380.138 -79.235397 241.386
-380.138 -78.6549 241.386
-380.138 -78.074402 241.386
-380.138 -77.493896 241.386
-380.138 -76.913399 241.386
-380.138 -76.333 241.386
-380.138 -75.752502 241.386
-380.138 -75.171997 241.386
-380.138 -74.591499 241.386
-380.138 -74.011002 241.386
-380.138 -73.430603 241.386
-380.138 -72.850098 241.386
-380.138 -72.2696 241.386
-380.138 -71.689102 241.386
-380.138 -71.108704 241.386
-373.62 -45.356998 240.27
-373.62 -44.779202 240.27
-373.62 -44.201401 240.27
-373.62 -43.6236 240.27
-373.62 -43.045799 240.27
-373.62 -42.467999 240.27
-373.62 -41.890202 240.27
-373.62 -41.312401 240.27
-373.62 -40.7346 240.27
-373.62 -40.156799 240.27
-373.62 -39.578999 240.27
-373.62 -39.001202 240.27
-373.62 -38.423401 240.27
-373.62 -37.8456 240.27
-373.62 -37.267799 240.27
-373.62 -36.689999 240.27
-373.62 -36.112202 240.27
-373.62 -35.534401 240.27
-373.62 -34.9566 240.27
-373.62 -34.378799 240.27
-373.62 -33.800999 240.27
-373.62 -33.223202 240.27
-373.62 -32.6455 240.27
-373.62 -32.067699 240.27
-373.62 -31.489901 240.27
-373.62 -30.9121 240.27
-373.62 -30.334299 240.27
-373.62 -29.7565 240.27
-373.62 -29.178699 240.27
-373.62 -28.600901 240.27
-373.62 -28.0231 240.27
-373.62 -27.445299 240.27
-373.62 -26.8675 240.27
-373.62 -26.2897 240.27
-373.62 -25.711901 240.27
-373.62 -25.1341 240.27
-373.62 -24.556299 240.27
-373.62 -23.9785 240.27
-373.62 -23.4007 240.27
-373.62 -22.822901 240.27
-373.62 -22.2451 240.27
-373.62 -21.667299 240.27
-373.62 -21.0895 240.27
-373.62 -20.5117 240.27
-373.62 -19.933901 240.27
-373.62 -19.356199 240.27
-373.62 -18.7784 240.27
-373.62 -18.2006 240.27
-373.62 -17.622801 240.27
-373.62 -17.045 240.27
-373.62 -16.467199 240.27
-373.62 -15.8894 240.27
-373.62 -15.3116 240.27
-373.62 -14.7338 240.27
-373.62 -14.156 240.27
-373.62 -13.5782 240.27
-373.62 -13.0004 240.27
-373.62 -12.4226 240.27
-373.62 -11.8448 240.27
-367.16199 16.391399 239.16499
-367.16199 16.966499 239.16499
-367.16199 17.5417 239.16499
-367.16199 18.1168 239.16499
-367.16199 18.691999 239.16499
-367.16199 19.267099 239.16499
-367.16199 19.842199 239.16499
-367.16199 20.4174 239.16499
-367.16199 20.9925 239.16499
-367.16199 21.5676 239.16499
-367.16199 22.142799 239.16499
-367.16199 22.717899 239.16499
-367.16199 23.2931 239.16499
-367.16199 23.8682 239.16499
-367.16199 24.4433 239.16499
-367.16199 25.018499 239.16499
-367.16199 25.593599 239.16499
-367.16199 26.168699 239.16499
-367.16199 26.7439 239.16499
-367.16199 27.319 239.16499
-367.16199 27.8941 239.16499
-367.16199 28.469299 239.16499
-367.16199 29.044399 239.16499
-367.16199 29.6196 239.16499
-367.16199 30.1947 239.16499
-367.16199 30.7698 239.16499
-367.16199 31.344999 239.16499
-367.16199 31.920099 239.16499
-367.16199 32.495201 239.16499
-367.16199 33.0704 239.16499
-367.16199 33.6455 239.16499
-367.16199 34.220699 239.16499
-367.16199 34.795799 239.16499
-367.16199 35.370899 239.16499
-367.16199 35.946098 239.16499
-367.16199 36.521198 239.16499
-367.16199 37.096298 239.16499
-367.16199 37.671501 239.16499
-367.16199 38.246601 239.16499
-367.16199 38.8218 239.16499
-367.16199 39.3969 239.16499
-367.16199 39.972 239.16499
-367.16199 40.547199 239.16499
-367.16199 41.122299 239.16499
-367.16199 41.697399 239.16499
-367.16199 42.272598 239.16499
-367.16199 42.847698 239.16499
-367.16199 43.422901 239.16499
-367.16199 43.998001 239.16499
-367.16199 44.573101 239.16499
-367.16199 45.1483 239.16499
-367.16199 45.7234 239.16499
-367.16199 46.2985 239.16499
-367.16199 46.873699 239.16499
