# .PCD v.7 - Point Cloud Data file format
VERSION .7
FIELDS x y z
SIZE 4 4 4 
TYPE F F F 
COUNT 1 1 1 
WIDTH 1823
HEIGHT 1
VIEWPOINT 0 0 0 1 0 0 0
POINTS 1823
DATA ascii
-99.6471 92.3056 -17.0622
-99.6471 92.7706 -17.0622
-99.6471 93.2356 -17.0622
-99.6471 93.7006 -17.0622
-99.6471 94.1656 -17.0622
-99.6471 94.6306 -17.0622
-99.6471 95.0957 -17.0622
-99.6471 95.5607 -17.0622
-99.6471 96.0257 -17.0622
-99.6471 96.4907 -17.0622
-99.6471 96.9557 -17.0622
-99.6471 97.4207 -17.0622
-99.6471 97.8858 -17.0622
-99.6471 98.3508 -17.0622
-99.6471 98.8158 -17.0622
-99.6471 99.2808 -17.0622
-99.6471 99.7458 -17.0622
-99.6471 100.211 -17.0622
-99.6471 100.676 -17.0622
-99.6471 101.141 -17.0622
-99.6471 101.606 -17.0622
-99.6471 102.071 -17.0622
-99.6471 102.536 -17.0622
-99.6471 103.001 -17.0622
-99.6471 103.466 -17.0622
-99.6471 103.931 -17.0622
-99.6471 104.396 -17.0622
-99.6471 104.861 -17.0622
-99.6471 105.326 -17.0622
-99.6471 107.651 -17.0622
-99.6471 108.116 -17.0622
-99.6471 108.581 -17.0622
-99.6471 109.046 -17.0622
-99.6471 112.301 -17.0622
-99.6471 112.766 -17.0622
-99.6471 113.231 -17.0622
-99.6471 113.696 -17.0622
-99.6471 114.161 -17.0622
-99.6471 114.626 -17.0622
-99.6471 115.091 -17.0622
-99.6471 115.556 -17.0622
-99.6471 116.021 -17.0622
-99.6471 116.486 -17.0622
-99.6471 116.951 -17.0622
-99.6471 117.416 -17.0622
-99.6471 117.881 -17.0622
-99.6471 118.346 -17.0622
-99.6471 118.811 -17.0622
65.4177 130.834 -14.5691
68.472 130.419 -14.5229
103.67 -34.8908 -13.9913
103.67 -31.8403 -13.9913
151.888 101.031 -13.263
-385.145 -339.912 -28.4992
-385.145 -339.329 -28.4992
-385.145 -338.747 -28.4992
-385.145 -338.164 -28.4992
-385.145 -337.582 -28.4992
-385.145 -336.999 -28.4992
-385.145 -336.417 -28.4992
-385.145 -335.834 -28.4992
-385.145 -335.252 -28.4992
-385.145 -334.669 -28.4992
-385.145 -334.086 -28.4992
-385.145 -333.504 -28.4992
-385.145 -332.921 -28.4992
-385.145 -332.339 -28.4992
-385.145 -331.756 -28.4992
-385.145 -331.174 -28.4992
-385.145 -330.591 -28.4992
-385.145 -330.009 -28.4992
-385.145 -329.426 -28.4992
-385.145 -328.844 -28.4992
-385.145 -328.261 -28.4992
-385.145 -327.679 -28.4992
-385.145 -327.096 -28.4992
-385.145 -326.513 -28.4992
-385.145 -325.931 -28.4992
-385.145 -325.348 -28.4992
-385.145 -324.766 -28.4992
-385.145 -324.183 -28.4992
-385.145 -323.601 -28.4992
-385.145 -323.018 -28.4992
-385.145 -322.436 -28.4992
-385.145 -321.853 -28.4992
-385.145 -321.271 -28.4992
-385.145 -320.688 -28.4992
-385.145 -320.105 -28.4992
-385.145 -319.523 -28.4992
-385.145 -318.94 -28.4992
-385.145 -318.358 -28.4992
-385.145 -317.775 -28.4992
-385.145 -317.193 -28.4992
-385.145 -316.61 -28.4992
-385.145 -316.028 -28.4992
-385.145 -315.445 -28.4992
-385.145 -314.863 -28.4992
-385.145 -314.28 -28.4992
-385.145 -313.698 -28.4992
-385.145 -313.115 -28.4992
-385.145 -312.532 -28.4992
-385.145 -311.95 -28.4992
-385.145 -311.367 -28.4992
-385.145 -310.785 -28.4992
-385.145 -310.202 -28.4992
-385.145 -309.62 -28.4992
-385.145 -309.037 -28.4992
-385.145 -308.455 -28.4992
-385.145 -307.872 -28.4992
-385.145 -307.29 -28.4992
-385.145 -306.707 -28.4992
-385.145 -306.125 -28.4992
-385.145 -305.542 -28.4992
-385.145 -304.959 -28.4992
-385.145 -304.377 -28.4992
-385.145 -303.794 -28.4992
-385.145 -303.212 -28.4992
-385.145 -302.047 -28.4992
-385.145 -301.464 -28.4992
-385.145 -300.882 -28.4992
-378.58 -285.57 -28.367
-378.58 -284.99 -28.367
-378.58 -284.41 -28.367
-378.58 -283.83 -28.367
-378.58 -283.251 -28.367
-378.58 -282.671 -28.367
-378.58 -282.091 -28.367
-378.58 -281.511 -28.367
-378.58 -280.931 -28.367
-378.58 -280.351 -28.367
-378.58 -279.772 -28.367
-378.58 -279.192 -28.367
-378.58 -278.612 -28.367
-378.58 -278.032 -28.367
-378.58 -277.452 -28.367
-378.58 -276.872 -28.367
-378.58 -276.292 -28.367
-378.58 -275.713 -28.367
-378.58 -275.133 -28.367
-378.58 -274.553 -28.367
-378.58 -273.973 -28.367
-378.58 -273.393 -28.367
-378.58 -272.813 -28.367
-378.58 -272.234 -28.367
-378.58 -271.654 -28.367
-378.58 -271.074 -28.367
-378.58 -270.494 -28.367
-378.58 -269.914 -28.367
-378.58 -269.334 -28.367
-378.58 -268.755 -28.367
-378.58 -268.175 -28.367
-378.58 -267.595 -28.367
-378.58 -267.015 -28.367
-378.58 -266.435 -28.367
-378.58 -265.855 -28.367
-378.58 -265.276 -28.367
-378.58 -264.696 -28.367
-378.58 -264.116 -28.367
-378.58 -263.536 -28.367
-378.58 -262.956 -28.367
-378.58 -262.376 -28.367
-378.58 -261.797 -28.367
-378.58 -261.217 -28.367
-378.58 -260.637 -28.367
-378.58 -260.057 -28.367
-378.58 -259.477 -28.367
-378.58 -258.897 -28.367
-378.58 -258.318 -28.367
-378.58 -257.738 -28.367
-378.58 -257.158 -28.367
-378.58 -256.578 -28.367
-378.58 -255.998 -28.367
-378.58 -255.418 -28.367
-378.58 -254.839 -28.367
-378.58 -254.259 -28.367
-378.58 -253.679 -28.367
-378.58 -253.099 -28.367
-378.58 -252.519 -28.367
-378.58 -251.939 -28.367
-378.58 -251.359 -28.367
-378.58 -250.78 -28.367
-378.58 -250.2 -28.367
-378.58 -249.62 -28.367
-378.58 -249.04 -28.367
-378.58 -248.46 -28.367
-378.58 -247.88 -28.367
-378.58 -247.301 -28.367
-378.58 -246.721 -28.367
-378.58 -246.141 -28.367
-378.58 -245.561 -28.367
-378.58 -244.981 -28.367
-372.076 -221.918 -28.236
-372.076 -221.341 -28.236
-372.076 -220.764 -28.236
-372.076 -220.187 -28.236
-372.076 -219.609 -28.236
-372.076 -219.032 -28.236
-372.076 -218.455 -28.236
-372.076 -217.878 -28.236
-372.076 -217.301 -28.236
-372.076 -216.724 -28.236
-372.076 -216.146 -28.236
-372.076 -215.569 -28.236
-372.076 -214.992 -28.236
-372.076 -214.415 -28.236
-372.076 -213.838 -28.236
-372.076 -213.261 -28.236
-372.076 -212.683 -28.236
-328.179 190.37 -27.352
-328.179 190.929 -27.352
-322.131 185.626 -27.2302
-322.131 186.183 -27.2302
-322.131 187.853 -27.2302
-322.131 191.192 -27.2302
-322.131 191.749 -27.2302
-322.131 192.305 -27.2302
-322.131 192.862 -27.2302
-322.131 193.419 -27.2302
-322.131 193.975 -27.2302
-322.131 194.532 -27.2302
-322.131 195.088 -27.2302
-322.131 195.645 -27.2302
-322.131 196.202 -27.2302
-322.131 196.758 -27.2302
-322.131 197.315 -27.2302
-322.131 197.871 -27.2302
-322.131 198.428 -27.2302
-322.131 198.985 -27.2302
-322.131 199.541 -27.2302
-322.131 200.098 -27.2302
-322.131 200.654 -27.2302
-322.131 201.211 -27.2302
-322.131 201.768 -27.2302
-322.131 202.324 -27.2302
-322.131 202.881 -27.2302
-322.131 203.437 -27.2302
-322.131 203.994 -27.2302
-322.131 204.551 -27.2302
-322.131 205.107 -27.2302
-322.131 205.664 -27.2302
-322.131 206.22 -27.2302
-322.131 206.777 -27.2302
-322.131 207.334 -27.2302
-322.131 207.89 -27.2302
-322.131 208.447 -27.2302
-322.131 209.003 -27.2302
-322.131 209.56 -27.2302
-322.131 210.117 -27.2302
-322.131 210.673 -27.2302
-322.131 211.23 -27.2302
-322.131 211.786 -27.2302
-322.131 212.343 -27.2302
-322.131 212.9 -27.2302
-322.131 213.456 -27.2302
-322.131 214.013 -27.2302
-322.131 214.569 -27.2302
-322.131 215.126 -27.2302
-322.131 215.683 -27.2302
-322.131 216.239 -27.2302
-322.131 216.796 -27.2302
-322.131 217.352 -27.2302
-322.131 217.909 -27.2302
-322.131 218.466 -27.2302
-322.131 219.022 -27.2302
-322.131 219.579 -27.2302
-322.131 220.135 -27.2302
-322.131 220.692 -27.2302
-322.131 221.249 -27.2302
-322.131 221.805 -27.2302
-322.131 222.362 -27.2302
-322.131 222.918 -27.2302
-322.131 223.475 -27.2302
-322.131 224.032 -27.2302
-322.131 224.588 -27.2302
-322.131 225.145 -27.2302
-322.131 225.701 -27.2302
-322.131 226.258 -27.2302
-322.131 226.815 -27.2302
-322.131 227.371 -27.2302
-322.131 227.928 -27.2302
-316.137 235.784 -27.1094
-316.137 236.338 -27.1094
-316.137 236.892 -27.1094
-316.137 237.446 -27.1094
-316.137 238 -27.1094
-316.137 238.554 -27.1094
-316.137 239.108 -27.1094
-316.137 239.662 -27.1094
-316.137 240.217 -27.1094
-316.137 240.771 -27.1094
-316.137 241.325 -27.1094
-316.137 241.879 -27.1094
-316.137 242.433 -27.1094
-316.137 242.987 -27.1094
-316.137 243.541 -27.1094
-316.137 244.095 -27.1094
-316.137 244.65 -27.1094
-316.137 245.204 -27.1094
-316.137 245.758 -27.1094
-316.137 246.312 -27.1094
-316.137 246.866 -27.1094
-316.137 247.42 -27.1094
-316.137 247.974 -27.1094
-316.137 248.529 -27.1094
-316.137 249.083 -27.1094
-316.137 249.637 -27.1094
-316.137 250.191 -27.1094
-316.137 250.745 -27.1094
-316.137 251.299 -27.1094
-316.137 251.853 -27.1094
-316.137 252.407 -27.1094
-316.137 252.962 -27.1094
-316.137 253.516 -27.1094
-316.137 254.07 -27.1094
-316.137 254.624 -27.1094
-316.137 255.178 -27.1094
-316.137 255.732 -27.1094
-316.137 256.286 -27.1094
-316.137 256.841 -27.1094
-316.137 257.395 -27.1094
-316.137 257.949 -27.1094
-316.137 258.503 -27.1094
-316.137 259.057 -27.1094
-316.137 259.611 -27.1094
-316.137 260.165 -27.1094
-316.137 260.719 -27.1094
-316.137 261.274 -27.1094
-316.137 261.828 -27.1094
-316.137 262.382 -27.1094
-316.137 262.936 -27.1094
-316.137 263.49 -27.1094
-316.137 264.044 -27.1094
-316.137 264.598 -27.1094
-316.137 265.153 -27.1094
-316.137 265.707 -27.1094
-316.137 266.261 -27.1094
-316.137 266.815 -27.1094
-316.137 267.369 -27.1094
-316.137 267.923 -27.1094
-316.137 268.477 -27.1094
-316.137 269.031 -27.1094
-316.137 269.586 -27.1094
-316.137 270.14 -27.1094
-316.137 270.694 -27.1094
-316.137 271.248 -27.1094
-316.137 271.802 -27.1094
-316.137 272.356 -27.1094
-316.137 272.91 -27.1094
-316.137 273.465 -27.1094
-316.137 274.019 -27.1094
-310.196 281.636 -26.9898
-310.196 282.188 -26.9898
-310.196 282.74 -26.9898
-310.196 284.395 -26.9898
-310.196 284.946 -26.9898
-310.196 285.498 -26.9898
-310.196 286.05 -26.9898
-310.196 286.601 -26.9898
-310.196 287.153 -26.9898
-310.196 287.705 -26.9898
-310.196 288.257 -26.9898
-310.196 288.808 -26.9898
-310.196 289.36 -26.9898
-310.196 289.912 -26.9898
-310.196 290.463 -26.9898
-310.196 291.015 -26.9898
-310.196 291.567 -26.9898
-310.196 292.118 -26.9898
-310.196 292.67 -26.9898
-310.196 293.222 -26.9898
-310.196 293.773 -26.9898
-310.196 294.325 -26.9898
-310.196 294.877 -26.9898
-310.196 295.428 -26.9898
-310.196 295.98 -26.9898
-310.196 296.532 -26.9898
-310.196 297.084 -26.9898
-310.196 297.635 -26.9898
-310.196 298.187 -26.9898
-310.196 298.739 -26.9898
-310.196 299.29 -26.9898
-310.196 299.842 -26.9898
-310.196 300.394 -26.9898
-310.196 300.945 -26.9898
-310.196 301.497 -26.9898
-310.196 302.049 -26.9898
-310.196 302.6 -26.9898
-310.196 303.152 -26.9898
-310.196 303.704 -26.9898
-310.196 304.255 -26.9898
-310.196 304.807 -26.9898
-310.196 305.359 -26.9898
-310.196 305.911 -26.9898
-310.196 306.462 -26.9898
-310.196 307.014 -26.9898
-310.196 307.566 -26.9898
-310.196 308.117 -26.9898
-310.196 308.669 -26.9898
-310.196 309.221 -26.9898
-310.196 309.772 -26.9898
-310.196 310.324 -26.9898
-310.196 310.876 -26.9898
-310.196 311.427 -26.9898
-310.196 311.979 -26.9898
-310.196 312.531 -26.9898
-310.196 313.082 -26.9898
-310.196 313.634 -26.9898
-310.196 314.186 -26.9898
-310.196 314.738 -26.9898
-310.196 315.289 -26.9898
-310.196 315.841 -26.9898
-310.196 316.393 -26.9898
-310.196 318.599 -26.9898
-310.196 319.151 -26.9898
-310.196 319.703 -26.9898
-298.469 -199.877 -26.7536
-226.981 -190.156 -25.314
-226.981 -189.639 -25.314
-221.799 -188.342 -25.2096
-221.799 -187.826 -25.2096
-221.799 -187.311 -25.2096
-221.799 -186.796 -25.2096
-216.66 -184.489 -25.1061
-216.66 -183.976 -25.1061
-216.66 -183.463 -25.1061
-216.66 -182.95 -25.1061
-216.66 -182.437 -25.1061
-211.562 -179.135 -25.0035
-211.562 -178.624 -25.0035
-211.562 -178.113 -25.0035
-211.562 -177.602 -25.0035
-211.562 -177.091 -25.0035
-211.562 -176.58 -25.0035
-211.562 -176.069 -25.0035
-211.562 -175.558 -25.0035
-206.507 -174.334 -24.9016
-206.507 -173.825 -24.9016
-206.507 -173.316 -24.9016
-206.507 -172.807 -24.9016
-206.507 -172.298 -24.9016
-206.507 -171.789 -24.9016
-206.507 -171.28 -24.9016
-206.507 -170.771 -24.9016
-206.507 -170.262 -24.9016
-206.507 -169.753 -24.9016
-206.507 -169.244 -24.9016
-201.492 -166.53 -24.8006
-201.492 -166.023 -24.8006
-201.492 -165.516 -24.8006
-201.492 -165.009 -24.8006
-201.492 -164.502 -24.8006
-201.492 -163.995 -24.8006
-201.492 -163.488 -24.8006
-201.492 -162.981 -24.8006
-201.492 -162.474 -24.8006
-201.492 -161.967 -24.8006
-201.492 -161.46 -24.8006
-201.492 -160.953 -24.8006
-201.492 -160.446 -24.8006
-201.492 -159.939 -24.8006
-201.492 -159.433 -24.8006
-196.518 -156.769 -24.7005
-196.518 -156.264 -24.7005
-196.518 -155.759 -24.7005
-196.518 -155.254 -24.7005
-196.518 -154.749 -24.7005
-196.518 -154.245 -24.7005
-196.518 -153.74 -24.7005
-196.518 -153.235 -24.7005
-196.518 -152.73 -24.7005
-196.518 -152.225 -24.7005
-196.518 -151.72 -24.7005
-196.518 -151.215 -24.7005
-196.518 -150.71 -24.7005
-196.518 -150.205 -24.7005
-196.518 -149.7 -24.7005
-196.518 -149.196 -24.7005
-196.518 -148.691 -24.7005
-196.518 -148.186 -24.7005
-196.518 -147.681 -24.7005
-196.518 -147.176 -24.7005
-196.518 -146.671 -24.7005
-196.518 -146.166 -24.7005
-196.518 -145.661 -24.7005
-196.518 -145.156 -24.7005
-196.518 -144.652 -24.7005
-196.518 -144.147 -24.7005
-196.518 -143.642 -24.7005
-196.518 -143.137 -24.7005
-196.518 -114.358 -24.7005
-196.518 -113.853 -24.7005
-191.584 -144.573 -24.6011
-191.584 -144.07 -24.6011
-191.584 -143.567 -24.6011
-191.584 -143.064 -24.6011
-191.584 -142.561 -24.6011
-191.584 -142.058 -24.6011
-191.584 -141.555 -24.6011
-191.584 -141.052 -24.6011
-191.584 -140.55 -24.6011
-191.584 -140.047 -24.6011
-191.584 -139.544 -24.6011
-191.584 -139.041 -24.6011
-191.584 -138.538 -24.6011
-191.584 -138.035 -24.6011
-191.584 -137.532 -24.6011
-191.584 -137.03 -24.6011
-191.584 -136.527 -24.6011
-191.584 -136.024 -24.6011
-191.584 -135.521 -24.6011
-191.584 -135.018 -24.6011
-191.584 -134.515 -24.6011
-191.584 -134.012 -24.6011
-191.584 -133.51 -24.6011
-191.584 -133.007 -24.6011
-191.584 -132.504 -24.6011
-191.584 -132.001 -24.6011
-191.584 -131.498 -24.6011
-191.584 -130.995 -24.6011
-191.584 -130.492 -24.6011
-191.584 -129.99 -24.6011
-191.584 -129.487 -24.6011
-191.584 -128.984 -24.6011
-191.584 -128.481 -24.6011
-191.584 -127.978 -24.6011
-191.584 -127.475 -24.6011
-191.584 -126.972 -24.6011
-191.584 -126.47 -24.6011
-191.584 -125.967 -24.6011
-191.584 -125.464 -24.6011
-191.584 -124.961 -24.6011
-191.584 -124.458 -24.6011
-191.584 -123.955 -24.6011
-191.584 -123.452 -24.6011
-191.584 -122.949 -24.6011
-191.584 -122.447 -24.6011
-191.584 -121.944 -24.6011
-191.584 -121.441 -24.6011
-191.584 -120.938 -24.6011
-191.584 -120.435 -24.6011
-186.689 -119.452 -24.5025
-186.689 -118.951 -24.5025
-186.689 -118.45 -24.5025
-186.689 -117.949 -24.5025
-186.689 -117.448 -24.5025
-186.689 -116.948 -24.5025
-186.689 -116.447 -24.5025
-186.689 -115.946 -24.5025
-186.689 -115.445 -24.5025
-186.689 -114.944 -24.5025
-186.689 -114.443 -24.5025
-186.689 -111.939 -24.5025
-186.689 -111.438 -24.5025
-186.689 -110.937 -24.5025
-186.689 -110.437 -24.5025
-186.689 -109.936 -24.5025
-186.689 -109.435 -24.5025
-186.689 -108.934 -24.5025
-186.689 -108.433 -24.5025
-186.689 -107.932 -24.5025
-186.689 -107.431 -24.5025
-186.689 -106.931 -24.5025
-186.689 -106.43 -24.5025
-186.689 -105.929 -24.5025
-186.689 -105.428 -24.5025
-186.689 -104.927 -24.5025
-186.689 -104.426 -24.5025
-186.689 -103.926 -24.5025
-186.689 -103.425 -24.5025
-186.689 -102.924 -24.5025
-186.689 -102.423 -24.5025
-186.689 -101.922 -24.5025
-186.689 -101.421 -24.5025
-186.689 -100.92 -24.5025
-186.689 -100.42 -24.5025
-186.689 -99.9188 -24.5025
-186.689 -99.4179 -24.5025
-186.689 -98.9171 -24.5025
-186.689 -98.4162 -24.5025
-181.834 -100.518 -24.4048
-181.834 -100.019 -24.4048
-181.834 -99.52 -24.4048
-181.834 -99.0212 -24.4048
-181.834 -98.5223 -24.4048
-181.834 -98.0235 -24.4048
-181.834 -97.5246 -24.4048
-181.834 -97.0258 -24.4048
-181.834 -96.5269 -24.4048
-181.834 -96.0281 -24.4048
-181.834 -95.5293 -24.4048
-181.834 -95.0304 -24.4048
-181.834 -94.5316 -24.4048
-181.834 -94.0327 -24.4048
-181.834 -93.5339 -24.4048
-181.834 -93.035 -24.4048
-181.834 -92.5362 -24.4048
-181.834 -92.0373 -24.4048
-181.834 -91.5385 -24.4048
-181.834 -91.0396 -24.4048
-181.834 -90.5408 -24.4048
-181.834 -90.0419 -24.4048
-181.834 -89.5431 -24.4048
-181.834 -89.0442 -24.4048
-181.834 -88.5454 -24.4048
-181.834 -88.0465 -24.4048
-181.834 -87.5477 -24.4048
-181.834 -87.0488 -24.4048
-181.834 -86.55 -24.4048
-181.834 -86.0512 -24.4048
-181.834 -85.5523 -24.4048
-181.834 -85.0535 -24.4048
-181.834 -84.5546 -24.4048
-181.834 -84.0558 -24.4048
-181.834 -83.5569 -24.4048
-181.834 -83.0581 -24.4048
-181.834 -82.5592 -24.4048
-181.834 -82.0604 -24.4048
-181.834 -81.5615 -24.4048
-181.834 -81.0627 -24.4048
-181.834 -80.5638 -24.4048
-181.834 -80.065 -24.4048
-181.834 -79.5661 -24.4048
-181.834 -79.0673 -24.4048
-181.834 -78.5684 -24.4048
-181.834 -78.0696 -24.4048
-181.834 -77.5707 -24.4048
-181.834 -77.0719 -24.4048
-181.834 -76.5731 -24.4048
-181.834 -76.0742 -24.4048
-181.834 -75.5754 -24.4048
-181.834 -75.0765 -24.4048
-181.834 -74.5777 -24.4048
-181.834 -74.0788 -24.4048
-181.834 -73.58 -24.4048
-181.834 -73.0811 -24.4048
-181.834 -72.5823 -24.4048
-181.834 -72.0834 -24.4048
-181.834 -71.5846 -24.4048
-181.834 -71.0857 -24.4048
-181.834 -70.5869 -24.4048
-181.834 -70.088 -24.4048
-181.834 -69.5892 -24.4048
-181.834 -69.0903 -24.4048
-181.834 -68.5915 -24.4048
-181.834 -68.0927 -24.4048
-181.834 -67.5938 -24.4048
-181.834 -67.095 -24.4048
-181.834 -66.5961 -24.4048
-181.834 160.878 -24.4048
-181.834 161.377 -24.4048
-181.834 161.876 -24.4048
-177.017 -73.2875 -24.3077
-177.017 -72.7906 -24.3077
-177.017 -72.2938 -24.3077
-177.017 -71.7969 -24.3077
-177.017 -71.3 -24.3077
-177.017 -70.8032 -24.3077
-177.017 -70.3063 -24.3077
-177.017 -69.8094 -24.3077
-177.017 -69.3126 -24.3077
-177.017 -68.8157 -24.3077
-177.017 -68.3189 -24.3077
-177.017 -67.822 -24.3077
-177.017 -67.3251 -24.3077
-177.017 -66.8283 -24.3077
-177.017 -66.3314 -24.3077
-177.017 -65.8345 -24.3077
-177.017 -65.3377 -24.3077
-177.017 -64.8408 -24.3077
-177.017 -64.3439 -24.3077
-177.017 -63.8471 -24.3077
-177.017 -63.3502 -24.3077
-177.017 -62.8533 -24.3077
-177.017 -62.3565 -24.3077
-177.017 -61.8596 -24.3077
-177.017 -61.3628 -24.3077
-177.017 -60.8659 -24.3077
-177.017 -60.369 -24.3077
-177.017 -59.8722 -24.3077
-177.017 -59.3753 -24.3077
-177.017 -58.8784 -24.3077
-177.017 -58.3816 -24.3077
-177.017 -57.8847 -24.3077
-177.017 -57.3878 -24.3077
-177.017 -56.891 -24.3077
-177.017 -56.3941 -24.3077
-177.017 -55.8972 -24.3077
-177.017 -55.4004 -24.3077
-177.017 -54.9035 -24.3077
-177.017 -54.4067 -24.3077
-177.017 -53.9098 -24.3077
-177.017 -53.4129 -24.3077
-177.017 -52.9161 -24.3077
-177.017 -52.4192 -24.3077
-177.017 -51.9223 -24.3077
-177.017 -51.4255 -24.3077
-177.017 -50.9286 -24.3077
-177.017 -50.4317 -24.3077
-177.017 -49.9349 -24.3077
-177.017 -49.438 -24.3077
-177.017 -48.9411 -24.3077
-177.017 -48.4443 -24.3077
-177.017 -47.9474 -24.3077
-177.017 -47.4505 -24.3077
-177.017 -46.9537 -24.3077
-177.017 -46.4568 -24.3077
-177.017 -45.96 -24.3077
-177.017 -45.4631 -24.3077
-177.017 -44.9662 -24.3077
-177.017 -44.4694 -24.3077
-177.017 -43.9725 -24.3077
-177.017 -43.4756 -24.3077
-177.017 -42.9788 -24.3077
-177.017 -42.4819 -24.3077
-177.017 -41.985 -24.3077
-177.017 -41.4882 -24.3077
-177.017 -40.9913 -24.3077
-177.017 -40.4944 -24.3077
-177.017 -39.9976 -24.3077
-177.017 -39.5007 -24.3077
-177.017 -39.0039 -24.3077
-177.017 -38.507 -24.3077
-177.017 -38.0101 -24.3077
-177.017 -37.5133 -24.3077
-177.017 -37.0164 -24.3077
-177.017 -36.5195 -24.3077
-177.017 -36.0227 -24.3077
-177.017 -35.5258 -24.3077
-177.017 -35.0289 -24.3077
-177.017 -34.5321 -24.3077
-177.017 -34.0352 -24.3077
-177.017 -33.5383 -24.3077
-177.017 -33.0415 -24.3077
-177.017 -32.5446 -24.3077
-177.017 -32.0478 -24.3077
-177.017 -31.5509 -24.3077
-177.017 -31.054 -24.3077
-177.017 -30.5572 -24.3077
-177.017 -30.0603 -24.3077
-177.017 -29.5634 -24.3077
-177.017 -29.0666 -24.3077
-177.017 -28.5697 -24.3077
-177.017 -28.0728 -24.3077
-177.017 -27.576 -24.3077
-177.017 -27.0791 -24.3077
-177.017 -26.5822 -24.3077
-177.017 -26.0854 -24.3077
-177.017 -25.5885 -24.3077
-177.017 -25.0917 -24.3077
-177.017 -24.5948 -24.3077
-177.017 -24.0979 -24.3077
-177.017 -23.6011 -24.3077
-177.017 -23.1042 -24.3077
-177.017 -22.6073 -24.3077
-177.017 -22.1105 -24.3077
-177.017 -21.6136 -24.3077
-177.017 -21.1167 -24.3077
-177.017 -20.6199 -24.3077
-177.017 -20.123 -24.3077
-177.017 -19.6261 -24.3077
-177.017 -19.1293 -24.3077
-177.017 -18.6324 -24.3077
-177.017 -18.1356 -24.3077
-177.017 -17.6387 -24.3077
-177.017 -17.1418 -24.3077
-177.017 -16.645 -24.3077
-177.017 -16.1481 -24.3077
-177.017 -15.6512 -24.3077
-177.017 -15.1544 -24.3077
-177.017 -14.6575 -24.3077
-177.017 -14.1606 -24.3077
-177.017 -13.6638 -24.3077
-177.017 -13.1669 -24.3077
-177.017 -12.67 -24.3077
-177.017 -12.1732 -24.3077
-177.017 -11.6763 -24.3077
-177.017 -11.1794 -24.3077
-177.017 -10.6826 -24.3077
-177.017 -10.1857 -24.3077
-177.017 -8.69513 -24.3077
-177.017 -8.19826 -24.3077
-177.017 -4.22335 -24.3077
-177.017 -3.72648 -24.3077
-177.017 -3.22962 -24.3077
-177.017 -2.73275 -24.3077
-177.017 -1.24216 -24.3077
-177.017 -0.745297 -24.3077
-177.017 -0.248432 -24.3077
-177.017 157.258 -24.3077
-177.017 157.754 -24.3077
-177.017 158.251 -24.3077
-177.017 158.748 -24.3077
-177.017 159.245 -24.3077
-177.017 159.742 -24.3077
-177.017 160.239 -24.3077
-177.017 160.736 -24.3077
-177.017 161.232 -24.3077
-177.017 161.729 -24.3077
-172.238 -57.1606 -24.2115
-172.238 -56.6657 -24.2115
-172.238 -56.1708 -24.2115
-172.238 -50.2321 -24.2115
-172.238 -49.7372 -24.2115
-172.238 -49.2423 -24.2115
-172.238 -48.7474 -24.2115
-172.238 -48.2525 -24.2115
-172.238 -46.7678 -24.2115
-172.238 -45.2831 -24.2115
-172.238 -44.7882 -24.2115
-172.238 -33.4056 -24.2115
-172.238 -32.9107 -24.2115
-172.238 -32.4158 -24.2115
-172.238 -31.9209 -24.2115
-172.238 -31.426 -24.2115
-172.238 -30.9311 -24.2115
-172.238 -30.4362 -24.2115
-172.238 -29.9413 -24.2115
-172.238 -29.4464 -24.2115
-172.238 -28.9515 -24.2115
-172.238 -23.0127 -24.2115
-172.238 -22.5178 -24.2115
-172.238 -22.0229 -24.2115
-172.238 -21.528 -24.2115
-172.238 -21.0331 -24.2115
-172.238 -20.5382 -24.2115
-172.238 -20.0433 -24.2115
-172.238 -19.5484 -24.2115
-172.238 -19.0535 -24.2115
-172.238 -18.5586 -24.2115
-172.238 -18.0637 -24.2115
-172.238 -17.5689 -24.2115
-172.238 -17.074 -24.2115
-172.238 -16.5791 -24.2115
-172.238 -16.0842 -24.2115
-172.238 -15.5893 -24.2115
-172.238 -15.0944 -24.2115
-172.238 -14.5995 -24.2115
-172.238 -14.1046 -24.2115
-172.238 -13.6097 -24.2115
-172.238 -13.1148 -24.2115
-172.238 -12.6199 -24.2115
-172.238 -12.125 -24.2115
-172.238 -11.6301 -24.2115
-172.238 -11.1352 -24.2115
-172.238 -10.6403 -24.2115
-172.238 -10.1454 -24.2115
-172.238 -9.6505 -24.2115
-172.238 -9.1556 -24.2115
-172.238 -8.6607 -24.2115
-172.238 -8.1658 -24.2115
-172.238 -7.67091 -24.2115
-172.238 -7.17601 -24.2115
-172.238 -6.68111 -24.2115
-172.238 -6.18622 -24.2115
-172.238 -5.69132 -24.2115
-172.238 -5.19642 -24.2115
-172.238 -4.70152 -24.2115
-172.238 -4.20663 -24.2115
-172.238 -3.71173 -24.2115
-172.238 -3.21683 -24.2115
-172.238 -2.72193 -24.2115
-172.238 -2.22704 -24.2115
-172.238 -1.73214 -24.2115
-172.238 -1.23724 -24.2115
-172.238 -0.742346 -24.2115
-172.238 -0.247449 -24.2115
-172.238 0.247449 -24.2115
-172.238 0.742346 -24.2115
-172.238 1.23724 -24.2115
-172.238 1.73214 -24.2115
-172.238 2.22704 -24.2115
-172.238 2.72193 -24.2115
-172.238 3.21683 -24.2115
-172.238 3.71173 -24.2115
-172.238 4.20663 -24.2115
-172.238 4.70152 -24.2115
-172.238 5.19642 -24.2115
-172.238 5.69132 -24.2115
-172.238 6.18622 -24.2115
-172.238 6.68111 -24.2115
-172.238 7.17601 -24.2115
-172.238 7.67091 -24.2115
-172.238 8.1658 -24.2115
-172.238 8.6607 -24.2115
-172.238 9.1556 -24.2115
-172.238 9.6505 -24.2115
-172.238 10.1454 -24.2115
-172.238 10.6403 -24.2115
-172.238 11.1352 -24.2115
-172.238 11.6301 -24.2115
-172.238 12.125 -24.2115
-172.238 12.6199 -24.2115
-172.238 13.1148 -24.2115
-172.238 13.6097 -24.2115
-172.238 17.074 -24.2115
-172.238 17.5689 -24.2115
-172.238 18.0637 -24.2115
-172.238 18.5586 -24.2115
-172.238 19.0535 -24.2115
-172.238 19.5484 -24.2115
-172.238 20.0433 -24.2115
-172.238 20.5382 -24.2115
-172.238 24.0025 -24.2115
-172.238 24.4974 -24.2115
-172.238 24.9923 -24.2115
-172.238 25.4872 -24.2115
-172.238 25.9821 -24.2115
-172.238 26.477 -24.2115
-172.238 152.181 -24.2115
-172.238 152.676 -24.2115
-172.238 153.171 -24.2115
-172.238 153.666 -24.2115
-172.238 154.16 -24.2115
-172.238 154.655 -24.2115
-172.238 155.15 -24.2115
-172.238 155.645 -24.2115
-172.238 156.14 -24.2115
-172.238 156.635 -24.2115
-172.238 157.13 -24.2115
-172.238 157.625 -24.2115
-167.497 9.11949 -24.116
-167.497 9.61244 -24.116
-167.497 12.5701 -24.116
-167.497 13.0631 -24.116
-167.497 17.4996 -24.116
-167.497 17.9925 -24.116
-167.497 18.4855 -24.116
-167.497 18.9784 -24.116
-167.497 19.4713 -24.116
-167.497 19.9643 -24.116
-167.497 24.4008 -24.116
-167.497 24.8938 -24.116
-167.497 25.3867 -24.116
-167.497 25.8796 -24.116
-167.497 26.3726 -24.116
-167.497 26.8655 -24.116
-167.497 27.3585 -24.116
-167.497 27.8514 -24.116
-167.497 28.3444 -24.116
-167.497 28.8373 -24.116
-167.497 29.3303 -24.116
-167.497 29.8232 -24.116
-167.497 30.3162 -24.116
-167.497 30.8091 -24.116
-167.497 31.302 -24.116
-167.497 31.795 -24.116
-167.497 32.2879 -24.116
-167.497 32.7809 -24.116
-167.497 33.2738 -24.116
-167.497 33.7668 -24.116
-167.497 34.2597 -24.116
-167.497 34.7527 -24.116
-167.497 35.2456 -24.116
-167.497 35.7386 -24.116
-167.497 36.2315 -24.116
-167.497 36.7244 -24.116
-167.497 37.2174 -24.116
-167.497 37.7103 -24.116
-167.497 38.2033 -24.116
-167.497 38.6962 -24.116
-167.497 39.6821 -24.116
-167.497 40.1751 -24.116
-167.497 40.668 -24.116
-167.497 145.172 -24.116
-167.497 145.665 -24.116
-167.497 151.088 -24.116
-167.497 151.581 -24.116
-167.497 152.074 -24.116
-167.497 152.567 -24.116
-162.793 37.0712 -24.0213
-162.793 37.5622 -24.0213
-162.793 38.0532 -24.0213
-162.793 40.0173 -24.0213
-162.793 40.5083 -24.0213
-162.793 40.9993 -24.0213
-162.793 41.4903 -24.0213
-162.793 41.9813 -24.0213
-162.793 42.4723 -24.0213
-162.793 42.9633 -24.0213
-162.793 43.4543 -24.0213
-162.793 43.9453 -24.0213
-162.793 44.4363 -24.0213
-162.793 45.4184 -24.0213
-162.793 47.8734 -24.0213
-162.793 48.3644 -24.0213
-162.793 48.8554 -24.0213
-162.793 49.3464 -24.0213
-162.793 49.8374 -24.0213
-162.793 50.3284 -24.0213
-162.793 50.8195 -24.0213
-162.793 51.3105 -24.0213
-162.793 51.8015 -24.0213
-162.793 52.2925 -24.0213
-162.793 52.7835 -24.0213
-162.793 53.2745 -24.0213
-162.793 53.7655 -24.0213
-162.793 54.2565 -24.0213
-162.793 54.7475 -24.0213
-162.793 55.2385 -24.0213
-162.793 56.7116 -24.0213
-162.793 57.2026 -24.0213
-162.793 57.6936 -24.0213
-162.793 58.1846 -24.0213
-162.793 58.6756 -24.0213
-162.793 59.1666 -24.0213
-162.793 59.6576 -24.0213
-162.793 134.782 -24.0213
-162.793 135.273 -24.0213
-162.793 135.764 -24.0213
-162.793 136.255 -24.0213
-162.793 136.746 -24.0213
-162.793 137.237 -24.0213
-162.793 137.728 -24.0213
-162.793 138.219 -24.0213
-162.793 138.71 -24.0213
-162.793 139.201 -24.0213
-162.793 139.692 -24.0213
-162.793 140.183 -24.0213
-162.793 140.674 -24.0213
-162.793 141.165 -24.0213
-162.793 141.656 -24.0213
-162.793 142.147 -24.0213
-162.793 145.093 -24.0213
-162.793 145.584 -24.0213
-162.793 146.075 -24.0213
-158.126 48.1752 -23.9273
-158.126 48.6643 -23.9273
-158.126 49.1533 -23.9273
-158.126 49.6424 -23.9273
-158.126 50.1315 -23.9273
-158.126 50.6206 -23.9273
-158.126 51.1097 -23.9273
-158.126 51.5988 -23.9273
-158.126 52.0879 -23.9273
-158.126 52.577 -23.9273
-158.126 53.0661 -23.9273
-158.126 53.5551 -23.9273
-158.126 54.0442 -23.9273
-158.126 54.5333 -23.9273
-158.126 55.0224 -23.9273
-158.126 55.5115 -23.9273
-158.126 56.0006 -23.9273
-158.126 56.4897 -23.9273
-158.126 56.9788 -23.9273
-158.126 57.4678 -23.9273
-158.126 57.9569 -23.9273
-158.126 58.446 -23.9273
-158.126 58.9351 -23.9273
-158.126 59.4242 -23.9273
-158.126 59.9133 -23.9273
-158.126 60.4024 -23.9273
-158.126 60.8915 -23.9273
-158.126 61.3806 -23.9273
-158.126 61.8696 -23.9273
-158.126 62.3587 -23.9273
-158.126 62.8478 -23.9273
-158.126 63.3369 -23.9273
-158.126 63.826 -23.9273
-158.126 64.3151 -23.9273
-158.126 64.8042 -23.9273
-158.126 65.2933 -23.9273
-158.126 65.7823 -23.9273
-158.126 66.2714 -23.9273
-158.126 66.7605 -23.9273
-158.126 67.2496 -23.9273
-158.126 67.7387 -23.9273
-158.126 68.2278 -23.9273
-158.126 68.7169 -23.9273
-158.126 69.206 -23.9273
-158.126 69.695 -23.9273
-158.126 70.1841 -23.9273
-158.126 70.6732 -23.9273
-158.126 71.1623 -23.9273
-158.126 71.6514 -23.9273
-158.126 72.1405 -23.9273
-158.126 72.6296 -23.9273
-158.126 73.1187 -23.9273
-158.126 73.6078 -23.9273
-158.126 74.0968 -23.9273
-158.126 74.5859 -23.9273
-158.126 75.075 -23.9273
-158.126 75.5641 -23.9273
-158.126 76.0532 -23.9273
-158.126 76.5423 -23.9273
-158.126 77.0314 -23.9273
-158.126 77.5205 -23.9273
-158.126 78.0095 -23.9273
-158.126 78.4986 -23.9273
-158.126 78.9877 -23.9273
-158.126 79.4768 -23.9273
-158.126 79.9659 -23.9273
-158.126 80.455 -23.9273
-158.126 80.9441 -23.9273
-158.126 81.4332 -23.9273
-158.126 81.9222 -23.9273
-158.126 82.4113 -23.9273
-158.126 82.9004 -23.9273
-158.126 83.3895 -23.9273
-158.126 83.8786 -23.9273
-158.126 84.3677 -23.9273
-158.126 84.8568 -23.9273
-158.126 85.3459 -23.9273
-158.126 85.835 -23.9273
-158.126 86.324 -23.9273
-158.126 86.8131 -23.9273
-158.126 87.3022 -23.9273
-158.126 87.7913 -23.9273
-158.126 88.2804 -23.9273
-158.126 88.7695 -23.9273
-158.126 89.2586 -23.9273
-158.126 89.7477 -23.9273
-158.126 90.2367 -23.9273
-158.126 90.7258 -23.9273
-158.126 91.2149 -23.9273
-158.126 91.704 -23.9273
-158.126 92.1931 -23.9273
-158.126 92.6822 -23.9273
-158.126 93.1713 -23.9273
-158.126 93.6604 -23.9273
-158.126 94.1495 -23.9273
-158.126 94.6385 -23.9273
-158.126 95.1276 -23.9273
-158.126 95.6167 -23.9273
-158.126 96.1058 -23.9273
-158.126 96.5949 -23.9273
-158.126 97.084 -23.9273
-158.126 97.5731 -23.9273
-158.126 98.0622 -23.9273
-158.126 98.5512 -23.9273
-158.126 99.0403 -23.9273
-158.126 99.5294 -23.9273
-158.126 100.019 -23.9273
-158.126 100.508 -23.9273
-158.126 100.997 -23.9273
-158.126 101.486 -23.9273
-158.126 101.975 -23.9273
-158.126 102.464 -23.9273
-158.126 102.953 -23.9273
-158.126 103.442 -23.9273
-158.126 103.931 -23.9273
-158.126 104.42 -23.9273
-158.126 104.909 -23.9273
-158.126 105.398 -23.9273
-158.126 105.888 -23.9273
-158.126 106.377 -23.9273
-158.126 106.866 -23.9273
-158.126 107.355 -23.9273
-158.126 107.844 -23.9273
-158.126 108.333 -23.9273
-158.126 108.822 -23.9273
-158.126 109.311 -23.9273
-158.126 109.8 -23.9273
-158.126 110.289 -23.9273
-158.126 110.778 -23.9273
-158.126 111.268 -23.9273
-158.126 111.757 -23.9273
-158.126 112.246 -23.9273
-158.126 112.735 -23.9273
-158.126 113.224 -23.9273
-158.126 113.713 -23.9273
-158.126 114.202 -23.9273
-158.126 114.691 -23.9273
-158.126 115.18 -23.9273
-158.126 115.669 -23.9273
-158.126 116.158 -23.9273
-158.126 116.648 -23.9273
-158.126 117.137 -23.9273
-158.126 117.626 -23.9273
-158.126 118.115 -23.9273
-158.126 118.604 -23.9273
-158.126 119.093 -23.9273
-158.126 119.582 -23.9273
-158.126 120.071 -23.9273
-158.126 120.56 -23.9273
-158.126 121.049 -23.9273
-158.126 121.538 -23.9273
-158.126 122.027 -23.9273
-158.126 122.517 -23.9273
-158.126 123.006 -23.9273
-158.126 123.495 -23.9273
-158.126 123.984 -23.9273
-158.126 124.473 -23.9273
-158.126 124.962 -23.9273
-158.126 125.451 -23.9273
-158.126 125.94 -23.9273
-158.126 126.429 -23.9273
-158.126 126.918 -23.9273
-158.126 127.407 -23.9273
-158.126 127.897 -23.9273
-158.126 128.386 -23.9273
-158.126 128.875 -23.9273
-158.126 129.364 -23.9273
-158.126 129.853 -23.9273
-158.126 130.342 -23.9273
-158.126 130.831 -23.9273
-158.126 131.32 -23.9273
-158.126 131.809 -23.9273
-158.126 132.298 -23.9273
-158.126 132.787 -23.9273
-158.126 133.276 -23.9273
-158.126 133.766 -23.9273
-158.126 134.255 -23.9273
-158.126 134.744 -23.9273
-158.126 135.233 -23.9273
-158.126 135.722 -23.9273
-158.126 136.211 -23.9273
-158.126 136.7 -23.9273
-158.126 137.189 -23.9273
-158.126 137.678 -23.9273
-158.126 138.167 -23.9273
-158.126 138.656 -23.9273
-158.126 139.146 -23.9273
-158.126 139.635 -23.9273
-158.126 140.124 -23.9273
-158.126 140.613 -23.9273
-158.126 141.591 -23.9273
-158.126 142.08 -23.9273
-153.495 72.8337 -23.8341
-153.495 78.1927 -23.8341
-153.495 78.6799 -23.8341
-153.495 79.1671 -23.8341
-153.495 81.1158 -23.8341
-153.495 81.603 -23.8341
-153.495 82.0901 -23.8341
-153.495 82.5773 -23.8341
-153.495 83.0645 -23.8341
-153.495 83.5517 -23.8341
-153.495 84.0389 -23.8341
-153.495 84.5261 -23.8341
-153.495 85.0132 -23.8341
-153.495 85.5004 -23.8341
-153.495 85.9876 -23.8341
-153.495 86.4748 -23.8341
-153.495 86.962 -23.8341
-153.495 87.4491 -23.8341
-153.495 87.9363 -23.8341
-153.495 88.4235 -23.8341
-153.495 88.9107 -23.8341
-153.495 89.3979 -23.8341
-153.495 89.8851 -23.8341
-153.495 90.3722 -23.8341
-153.495 90.8594 -23.8341
-153.495 91.3466 -23.8341
-153.495 91.8338 -23.8341
-153.495 92.321 -23.8341
-153.495 92.8081 -23.8341
-153.495 93.2953 -23.8341
-153.495 93.7825 -23.8341
-153.495 94.2697 -23.8341
-153.495 94.7569 -23.8341
-153.495 95.2441 -23.8341
-153.495 95.7312 -23.8341
-153.495 96.2184 -23.8341
-153.495 96.7056 -23.8341
-153.495 97.1928 -23.8341
-153.495 97.68 -23.8341
-153.495 98.1671 -23.8341
-153.495 98.6543 -23.8341
-153.495 99.1415 -23.8341
-153.495 99.6287 -23.8341
-153.495 100.116 -23.8341
-153.495 100.603 -23.8341
-153.495 101.09 -23.8341
-153.495 101.577 -23.8341
-153.495 102.065 -23.8341
-153.495 102.552 -23.8341
-153.495 103.039 -23.8341
-153.495 103.526 -23.8341
-153.495 104.013 -23.8341
-153.495 104.501 -23.8341
-153.495 104.988 -23.8341
-153.495 105.475 -23.8341
-153.495 105.962 -23.8341
-153.495 106.449 -23.8341
-153.495 106.936 -23.8341
-153.495 107.424 -23.8341
-153.495 107.911 -23.8341
-153.495 108.398 -23.8341
-153.495 108.885 -23.8341
-153.495 109.372 -23.8341
-153.495 109.86 -23.8341
-153.495 110.347 -23.8341
-153.495 112.783 -23.8341
-153.495 113.27 -23.8341
-153.495 113.757 -23.8341
-153.495 114.244 -23.8341
-153.495 117.654 -23.8341
-153.495 118.142 -23.8341
-153.495 118.629 -23.8341
-153.495 119.116 -23.8341
-153.495 119.603 -23.8341
-153.495 120.09 -23.8341
-153.495 120.578 -23.8341
-153.495 121.065 -23.8341
-153.495 121.552 -23.8341
-153.495 122.039 -23.8341
-153.495 122.526 -23.8341
-153.495 123.013 -23.8341
-153.495 123.501 -23.8341
-153.495 123.988 -23.8341
-153.495 124.475 -23.8341
26.4281 136.122 -20.2106
29.7339 135.674 -20.1441
67.7695 -36.2431 -19.3781
67.7695 -33.0743 -19.3781
119.692 104.736 -18.3324
1782.28 -74.1665 18.9373
1782.28 -74.4761 18.9373
1784.14 -74.0402 18.9844
1784.14 -75.9029 18.9844
2131.6 -130.826 27.7309
2168.78 -135.71 28.6669
2173.07 -136.221 28.7748
2363.87 -89.7748 33.5779
3072.74 -108.895 51.4225
3086.57 -108.786 51.7708
3610.97 -335.202 64.9717
8499.55 -945.505 188.034
-11976.2 238.252 -327.411
-3840.45 333.816 -122.606
-2154.77 93.7364 -80.1714
-784.543 54.1539 -45.6782
-773.764 62.7424 -45.4068
-393.307 -212.389 -35.8294
-323.521 -325.11 -34.0727
-323.521 -324.553 -34.0727
-323.521 -323.996 -34.0727
-323.521 -323.439 -34.0727
-323.521 -322.324 -34.0727
-323.521 -321.767 -34.0727
-323.521 -321.21 -34.0727
-317.514 -291.495 -33.9215
-317.514 -290.94 -33.9215
-317.514 -290.385 -33.9215
-317.514 -289.831 -33.9215
-317.514 -289.276 -33.9215
-317.514 -288.721 -33.9215
-317.514 -288.167 -33.9215
-317.514 -287.612 -33.9215
-317.514 -287.057 -33.9215
-317.514 -286.502 -33.9215
-317.514 -285.948 -33.9215
-317.514 -285.393 -33.9215
-317.514 -284.838 -33.9215
-317.514 -284.284 -33.9215
-317.514 -283.729 -33.9215
-317.514 -283.174 -33.9215
-317.514 -282.62 -33.9215
-317.514 -282.065 -33.9215
-317.514 -281.51 -33.9215
-317.514 -280.955 -33.9215
-317.514 -280.401 -33.9215
-317.514 -279.846 -33.9215
-317.514 -279.291 -33.9215
-317.514 -278.737 -33.9215
-317.514 -278.182 -33.9215
-317.514 -277.627 -33.9215
-317.514 -277.073 -33.9215
-317.514 -276.518 -33.9215
-317.514 -275.963 -33.9215
-317.514 -275.408 -33.9215
-317.514 -274.854 -33.9215
-317.514 -274.299 -33.9215
-317.514 -273.744 -33.9215
-317.514 -273.19 -33.9215
-317.514 -272.635 -33.9215
-317.514 -272.08 -33.9215
-317.514 -271.526 -33.9215
-317.514 -270.971 -33.9215
-317.514 -270.416 -33.9215
-317.514 -269.861 -33.9215
-317.514 -269.307 -33.9215
-317.514 -268.752 -33.9215
-317.514 -268.197 -33.9215
-317.514 -267.643 -33.9215
-317.514 -267.088 -33.9215
-317.514 -266.533 -33.9215
-317.514 -265.979 -33.9215
-317.514 -265.424 -33.9215
-317.514 -264.869 -33.9215
-317.514 -264.314 -33.9215
-317.514 -263.76 -33.9215
-317.514 -263.205 -33.9215
-317.514 -262.65 -33.9215
-317.514 -262.096 -33.9215
-317.514 -260.432 -33.9215
-317.514 -259.877 -33.9215
-317.514 -259.322 -33.9215
-311.561 -228.355 -33.7716
-311.561 -227.803 -33.7716
-311.561 -223.937 -33.7716
-311.561 -223.385 -33.7716
-311.561 -222.833 -33.7716
-311.561 -222.28 -33.7716
-311.561 -221.728 -33.7716
-311.561 -221.176 -33.7716
-311.561 -220.624 -33.7716
-311.561 -220.071 -33.7716
-311.561 -219.519 -33.7716
-311.561 -218.967 -33.7716
-311.561 -218.415 -33.7716
-311.561 -217.862 -33.7716
-311.561 -217.31 -33.7716
-311.561 -216.758 -33.7716
-311.561 -216.206 -33.7716
-311.561 -215.653 -33.7716
-311.561 -215.101 -33.7716
-311.561 -214.549 -33.7716
-311.561 -213.997 -33.7716
-311.561 -213.444 -33.7716
-311.561 -212.892 -33.7716
-311.561 -212.34 -33.7716
-311.561 -211.788 -33.7716
-311.561 -211.235 -33.7716
-311.561 -210.683 -33.7716
-311.561 -210.131 -33.7716
-311.561 -209.579 -33.7716
-311.561 -209.026 -33.7716
-311.561 -208.474 -33.7716
-311.561 -207.922 -33.7716
-311.561 -207.37 -33.7716
-311.561 -206.817 -33.7716
-311.561 -206.265 -33.7716
-311.561 -205.713 -33.7716
-311.561 -205.161 -33.7716
-311.561 -204.608 -33.7716
-265.764 177.888 -32.6187
-265.764 178.421 -32.6187
-265.764 178.955 -32.6187
-265.764 179.488 -32.6187
-265.764 180.021 -32.6187
-265.764 180.555 -32.6187
-265.764 181.088 -32.6187
-265.764 181.622 -32.6187
-265.764 182.155 -32.6187
-265.764 182.688 -32.6187
-265.764 183.222 -32.6187
-265.764 183.755 -32.6187
-265.764 184.289 -32.6187
-265.764 184.822 -32.6187
-265.764 185.355 -32.6187
-265.764 185.889 -32.6187
-265.764 186.422 -32.6187
-265.764 186.956 -32.6187
-265.764 187.489 -32.6187
-265.764 188.022 -32.6187
-265.764 188.556 -32.6187
-265.764 189.089 -32.6187
-265.764 189.623 -32.6187
-265.764 190.156 -32.6187
-265.764 190.689 -32.6187
-265.764 191.223 -32.6187
-265.764 191.756 -32.6187
-265.764 192.29 -32.6187
-265.764 192.823 -32.6187
-265.764 193.356 -32.6187
-265.764 193.89 -32.6187
-265.764 194.423 -32.6187
-260.258 214.311 -32.4801
-260.258 214.842 -32.4801
-260.258 215.373 -32.4801
-260.258 215.904 -32.4801
-260.258 216.436 -32.4801
-260.258 216.967 -32.4801
-260.258 217.498 -32.4801
-260.258 218.029 -32.4801
-260.258 218.56 -32.4801
-260.258 219.091 -32.4801
-260.258 219.622 -32.4801
-260.258 220.154 -32.4801
-260.258 220.685 -32.4801
-260.258 221.216 -32.4801
-260.258 221.747 -32.4801
-260.258 222.278 -32.4801
-260.258 222.809 -32.4801
-260.258 223.34 -32.4801
-260.258 223.871 -32.4801
-260.258 224.403 -32.4801
-260.258 224.934 -32.4801
-260.258 225.465 -32.4801
-260.258 225.996 -32.4801
-260.258 226.527 -32.4801
-260.258 227.058 -32.4801
-260.258 227.589 -32.4801
-260.258 228.12 -32.4801
-260.258 228.652 -32.4801
-260.258 229.183 -32.4801
-260.258 229.714 -32.4801
-260.258 230.245 -32.4801
-260.258 230.776 -32.4801
-260.258 231.307 -32.4801
-260.258 231.838 -32.4801
-260.258 232.37 -32.4801
-260.258 232.901 -32.4801
-260.258 233.432 -32.4801
-260.258 233.963 -32.4801
-260.258 234.494 -32.4801
-260.258 235.025 -32.4801
-260.258 235.556 -32.4801
-260.258 236.087 -32.4801
-260.258 236.619 -32.4801
-260.258 237.15 -32.4801
-260.258 237.681 -32.4801
-260.258 238.212 -32.4801
-260.258 238.743 -32.4801
-260.258 239.274 -32.4801
-260.258 239.805 -32.4801
-260.258 240.336 -32.4801
-260.258 240.868 -32.4801
-260.258 241.399 -32.4801
-254.799 249.368 -32.3427
-254.799 249.897 -32.3427
-254.799 250.426 -32.3427
-254.799 250.955 -32.3427
-254.799 251.484 -32.3427
-254.799 252.013 -32.3427
-254.799 252.542 -32.3427
-254.799 253.071 -32.3427
-254.799 253.599 -32.3427
-254.799 254.128 -32.3427
-254.799 254.657 -32.3427
-254.799 255.186 -32.3427
-254.799 255.715 -32.3427
-254.799 256.244 -32.3427
-254.799 256.773 -32.3427
-254.799 257.302 -32.3427
-254.799 257.831 -32.3427
-254.799 258.359 -32.3427
-254.799 258.888 -32.3427
-254.799 259.417 -32.3427
-254.799 259.946 -32.3427
-254.799 260.475 -32.3427
-254.799 261.004 -32.3427
-254.799 261.533 -32.3427
-254.799 262.062 -32.3427
-254.799 262.59 -32.3427
-254.799 263.119 -32.3427
-254.799 263.648 -32.3427
-254.799 264.177 -32.3427
-254.799 264.706 -32.3427
-254.799 265.235 -32.3427
-254.799 265.764 -32.3427
-254.799 266.293 -32.3427
-254.799 266.822 -32.3427
-254.799 267.35 -32.3427
-254.799 267.879 -32.3427
-254.799 268.408 -32.3427
-254.799 268.937 -32.3427
-254.799 269.466 -32.3427
-254.799 269.995 -32.3427
-254.799 270.524 -32.3427
-254.799 271.053 -32.3427
-254.799 271.581 -32.3427
-254.799 272.11 -32.3427
-254.799 272.639 -32.3427
-254.799 273.168 -32.3427
-254.799 273.697 -32.3427
-254.799 274.226 -32.3427
-254.799 274.755 -32.3427
-254.799 275.284 -32.3427
-254.799 275.813 -32.3427
-254.799 276.341 -32.3427
-254.799 276.87 -32.3427
-254.799 277.399 -32.3427
-249.386 288.87 -32.2064
-249.386 289.397 -32.2064
-249.386 292.03 -32.2064
-249.386 292.557 -32.2064
-249.386 293.083 -32.2064
-249.386 293.61 -32.2064
-249.386 294.137 -32.2064
-249.386 294.663 -32.2064
-249.386 295.19 -32.2064
-249.386 295.717 -32.2064
-249.386 296.243 -32.2064
-249.386 296.77 -32.2064
-249.386 297.297 -32.2064
-249.386 297.823 -32.2064
-249.386 298.35 -32.2064
-249.386 298.877 -32.2064
-249.386 299.403 -32.2064
-249.386 299.93 -32.2064
-249.386 300.457 -32.2064
-249.386 300.983 -32.2064
-249.386 301.51 -32.2064
-249.386 302.037 -32.2064
-249.386 302.563 -32.2064
-249.386 303.09 -32.2064
-249.386 303.616 -32.2064
-249.386 304.143 -32.2064
-249.386 304.67 -32.2064
-249.386 305.196 -32.2064
-249.386 305.723 -32.2064
-249.386 306.25 -32.2064
-202.645 -185.46 -31.0298
-182.95 -180.999 -30.534
-178.124 -179.781 -30.4126
-178.124 -179.284 -30.4126
-173.336 -178.078 -30.292
-173.336 -177.583 -30.292
-173.336 -177.087 -30.292
-173.336 -176.592 -30.292
-173.336 -176.097 -30.292
-168.587 -175.895 -30.1725
-168.587 -175.402 -30.1725
-168.587 -174.908 -30.1725
-168.587 -174.415 -30.1725
-163.874 -173.238 -30.0538
-163.874 -172.746 -30.0538
-163.874 -169.797 -30.0538
-163.874 -169.306 -30.0538
-163.874 -168.815 -30.0538
-163.874 -168.323 -30.0538
-163.874 162.426 -30.0538
-159.199 -174.517 -29.9361
-159.199 -167.174 -29.9361
-159.199 -166.685 -29.9361
-159.199 -166.195 -29.9361
-159.199 -165.706 -29.9361
-159.199 -165.216 -29.9361
-159.199 -164.727 -29.9361
-159.199 -164.237 -29.9361
-159.199 -163.748 -29.9361
-154.56 -162.134 -29.8194
-154.56 -161.646 -29.8194
-154.56 -161.158 -29.8194
-154.56 -160.671 -29.8194
-154.56 -160.183 -29.8194
-154.56 -159.696 -29.8194
-154.56 -159.208 -29.8194
-154.56 -158.72 -29.8194
-154.56 -158.233 -29.8194
-154.56 -157.745 -29.8194
-154.56 -157.257 -29.8194
-154.56 -156.77 -29.8194
-154.56 -156.282 -29.8194
-149.957 -155.675 -29.7035
-149.957 -155.189 -29.7035
-149.957 -154.703 -29.7035
-149.957 -154.218 -29.7035
-149.957 -153.732 -29.7035
-149.957 -153.246 -29.7035
-149.957 -152.761 -29.7035
-149.957 -152.275 -29.7035
-149.957 -151.789 -29.7035
-149.957 -151.303 -29.7035
-149.957 -150.818 -29.7035
-149.957 -150.332 -29.7035
-149.957 -149.846 -29.7035
-149.957 -149.361 -29.7035
-149.957 -148.875 -29.7035
-149.957 -148.389 -29.7035
-149.957 -147.903 -29.7035
-149.957 -147.418 -29.7035
-149.957 -146.932 -29.7035
-149.957 -146.446 -29.7035
-149.957 -145.96 -29.7035
-149.957 -145.475 -29.7035
-149.957 -144.989 -29.7035
-149.957 -144.503 -29.7035
-149.957 -144.018 -29.7035
-145.389 -143.944 -29.5885
-145.389 -143.46 -29.5885
-145.389 -142.976 -29.5885
-145.389 -142.492 -29.5885
-145.389 -142.009 -29.5885
-145.389 -141.525 -29.5885
-145.389 -141.041 -29.5885
-145.389 -140.557 -29.5885
-145.389 -140.073 -29.5885
-145.389 -139.589 -29.5885
-145.389 -139.105 -29.5885
-145.389 -138.622 -29.5885
-145.389 -138.138 -29.5885
-145.389 -137.654 -29.5885
-145.389 -137.17 -29.5885
-145.389 -136.686 -29.5885
-145.389 -136.202 -29.5885
-145.389 -135.719 -29.5885
-145.389 -135.235 -29.5885
-145.389 -134.751 -29.5885
-145.389 -134.267 -29.5885
-145.389 -133.783 -29.5885
-145.389 -133.299 -29.5885
-145.389 -132.815 -29.5885
-145.389 -132.332 -29.5885
-145.389 -131.848 -29.5885
-145.389 -131.364 -29.5885
-145.389 -130.88 -29.5885
-145.389 -130.396 -29.5885
-145.389 -129.912 -29.5885
-145.389 -129.429 -29.5885
-145.389 -128.945 -29.5885
-145.389 -128.461 -29.5885
-145.389 -127.977 -29.5885
-145.389 -127.493 -29.5885
-145.389 -127.009 -29.5885
-145.389 -126.526 -29.5885
-145.389 -126.042 -29.5885
-145.389 -125.558 -29.5885
-145.389 -125.074 -29.5885
-145.389 -124.59 -29.5885
-145.389 -124.106 -29.5885
-145.389 -123.622 -29.5885
-145.389 -123.139 -29.5885
-145.389 -122.655 -29.5885
-145.389 -1.69346 -29.5885
-145.389 4.59653 -29.5885
-145.389 5.08037 -29.5885
-145.389 41.3688 -29.5885
-140.857 -122.182 -29.4744
-140.857 -121.7 -29.4744
-140.857 -121.218 -29.4744
-140.857 -120.736 -29.4744
-140.857 -120.254 -29.4744
-140.857 -119.772 -29.4744
-140.857 -119.29 -29.4744
-140.857 -118.808 -29.4744
-140.857 -118.326 -29.4744
-140.857 -117.844 -29.4744
-140.857 -117.362 -29.4744
-140.857 -116.88 -29.4744
-140.857 -116.398 -29.4744
-140.857 -115.916 -29.4744
-140.857 -115.434 -29.4744
-140.857 -114.952 -29.4744
-140.857 -114.47 -29.4744
-140.857 -113.988 -29.4744
-140.857 -113.506 -29.4744
-140.857 -113.024 -29.4744
-140.857 -112.542 -29.4744
-140.857 -112.06 -29.4744
-140.857 -111.578 -29.4744
-140.857 -111.096 -29.4744
-140.857 -110.614 -29.4744
-140.857 -110.132 -29.4744
-140.857 -109.65 -29.4744
-140.857 -109.168 -29.4744
-140.857 -108.686 -29.4744
-140.857 -108.204 -29.4744
-140.857 -107.722 -29.4744
-140.857 -107.24 -29.4744
-140.857 -106.758 -29.4744
-140.857 -106.276 -29.4744
-140.857 -105.795 -29.4744
-140.857 -105.313 -29.4744
-140.857 -104.831 -29.4744
-140.857 -104.349 -29.4744
-140.857 -103.867 -29.4744
-140.857 -15.6643 -29.4744
-140.857 -15.1824 -29.4744
-140.857 -14.7004 -29.4744
-140.857 -14.2184 -29.4744
-140.857 -13.7364 -29.4744
-140.857 -13.2544 -29.4744
-140.857 -12.7725 -29.4744
-140.857 -12.2905 -29.4744
-140.857 -11.8085 -29.4744
-140.857 -11.3265 -29.4744
-140.857 -9.3986 -29.4744
-140.857 -8.91662 -29.4744
-140.857 -4.09683 -29.4744
-140.857 -3.61485 -29.4744
-140.857 -3.13287 -29.4744
-140.857 -2.65089 -29.4744
-140.857 -2.16891 -29.4744
-140.857 -1.68693 -29.4744
-140.857 -1.20495 -29.4744
-140.857 4.09683 -29.4744
-140.857 4.57881 -29.4744
-140.857 5.06078 -29.4744
-140.857 5.54276 -29.4744
-140.857 6.02474 -29.4744
-140.857 6.50672 -29.4744
-140.857 8.91662 -29.4744
-140.857 9.3986 -29.4744
-140.857 9.88058 -29.4744
-140.857 10.3626 -29.4744
-140.857 10.8445 -29.4744
-140.857 11.3265 -29.4744
-140.857 11.8085 -29.4744
-140.857 16.1463 -29.4744
-140.857 16.6283 -29.4744
-140.857 17.1103 -29.4744
-140.857 17.5923 -29.4744
-136.36 -108.269 -29.3612
-136.36 -107.789 -29.3612
-136.36 -107.309 -29.3612
-136.36 -106.829 -29.3612
-136.36 -106.348 -29.3612
-136.36 -105.868 -29.3612
-136.36 -105.388 -29.3612
-136.36 -104.908 -29.3612
-136.36 -104.428 -29.3612
-136.36 -103.948 -29.3612
-136.36 -103.468 -29.3612
-136.36 -102.988 -29.3612
-136.36 -102.507 -29.3612
-136.36 -102.027 -29.3612
-136.36 -101.547 -29.3612
-136.36 -101.067 -29.3612
-136.36 -100.587 -29.3612
-136.36 -100.107 -29.3612
-136.36 -99.6266 -29.3612
-136.36 -99.1465 -29.3612
-136.36 -98.6663 -29.3612
-136.36 -98.1862 -29.3612
-136.36 -97.7061 -29.3612
-136.36 -97.226 -29.3612
-136.36 -96.7458 -29.3612
-136.36 -96.2657 -29.3612
-136.36 -95.7856 -29.3612
-136.36 -95.3055 -29.3612
-136.36 -94.8253 -29.3612
-136.36 -94.3452 -29.3612
-136.36 -93.8651 -29.3612
-136.36 -93.3849 -29.3612
-136.36 -92.9048 -29.3612
-136.36 -92.4247 -29.3612
-136.36 -91.9446 -29.3612
-136.36 -91.4644 -29.3612
-136.36 -90.9843 -29.3612
-136.36 -90.5042 -29.3612
