# .PCD v0.7 - Point Cloud Data file format
VERSION 0.7
FIELDS x y z
SIZE 4 4 4
TYPE F F F
COUNT 1 1 1
WIDTH 1650
HEIGHT 1
VIEWPOINT 0 0 0 1 0 0 0
POINTS 1650
DATA ascii
-335.28101 -311.07401 295.57101
-335.28101 -308.82599 295.57101
-335.28101 -308.26401 295.57101
-335.28101 -307.702 295.57101
-329.17001 -298.492 294.24799
-329.17001 -297.93301 294.24799
-329.17001 -297.37299 294.24799
-329.17001 -296.814 294.24799
-329.17001 -296.254 294.24799
-329.17001 -295.69501 294.24799
-329.17001 -295.13501 294.24799
-329.17001 -294.57599 294.24799
-329.17001 -294.01599 294.24799
-329.17001 -293.457 294.24799
-329.17001 -292.897 294.24799
-329.17001 -292.33801 294.24799
-329.17001 -291.77802 294.24799
-329.17001 -291.21899 294.24799
-329.17001 -290.659 294.24799
-329.17001 -290.10001 294.24799
-329.17001 -289.54001 294.24799
-329.17001 -288.98099 294.24799
-329.17001 -288.42099 294.24799
-329.17001 -287.862 294.24799
-329.17001 -287.302 294.24799
-329.17001 -286.74301 294.24799
-329.17001 -286.18301 294.24799
-329.17001 -285.62399 294.24799
-329.17001 -285.064 294.24799
-329.17001 -284.505 294.24799
-329.17001 -283.94501 294.24799
-329.17001 -283.38599 294.24799
-329.17001 -282.82599 294.24799
-329.17001 -282.267 294.24799
-329.17001 -281.707 294.24799
-329.17001 -281.14801 294.24799
-329.17001 -280.58801 294.24799
-329.17001 -280.02899 294.24799
-329.17001 -279.46899 294.24799
-329.17001 -278.91 294.24799
-329.17001 -278.35001 294.24799
-329.17001 -277.79099 294.24799
-329.17001 -277.23099 294.24799
-329.17001 -276.672 294.24799
-329.17001 -276.112 294.24799
-329.17001 -275.55301 294.24799
-329.17001 -274.99301 294.24799
-329.17001 -274.43399 294.24799
-329.17001 -273.87399 294.24799
-329.17001 -273.315 294.24799
-329.17001 -272.755 294.24799
-329.17001 -272.19601 294.24799
-329.17001 -271.63599 294.24799
-329.17001 -271.077 294.24799
-329.17001 -270.517 294.24799
-329.17001 -269.95801 294.24799
-329.17001 -269.39801 294.24799
-323.11401 -248.703 292.93701
-323.11401 -248.146 292.93701
-323.11401 -247.589 292.93701
-323.11401 -247.032 292.93701
-323.11401 -246.47501 292.93701
-323.11401 -245.918 292.93701
-323.11401 -245.36099 292.93701
-323.11401 -244.804 292.93701
-323.11401 -244.24699 292.93701
-323.11401 -243.69 292.93701
-323.11401 -243.133 292.93701
-323.11401 -242.576 292.93701
-323.11401 -242.019 292.93701
-323.11401 -241.46201 292.93701
-323.11401 -240.905 292.93701
-323.11401 -240.34801 292.93701
-323.11401 -239.791 292.93701
-323.11401 -239.233 292.93701
-323.11401 -238.67599 292.93701
-323.11401 -238.119 292.93701
-323.11401 -237.562 292.93701
-323.11401 -237.005 292.93701
-323.11401 -236.448 292.93701
-323.11401 -235.89101 292.93701
-323.11401 -235.334 292.93701
-323.11401 -234.77699 292.93701
-323.11401 -234.22 292.93701
-323.11401 -233.66299 292.93701
-323.11401 -233.106 292.93701
-323.11401 -232.549 292.93701
-323.11401 -231.992 292.93701
-323.11401 -231.435 292.93701
-323.11401 -230.87801 292.93701
-323.11401 -230.321 292.93701
-323.11401 -229.76401 292.93701
-323.11401 -229.207 292.93701
-323.11401 -228.64999 292.93701
-323.11401 -228.093 292.93701
-323.11401 -227.536 292.93701
-323.11401 -226.979 292.93701
-323.11401 -226.422 292.93701
-323.11401 -225.86501 292.93701
-323.11401 -225.308 292.93701
-323.11401 -224.75101 292.93701
-323.11401 -224.194 292.93701
-323.11401 -223.63699 292.93701
-323.11401 -223.08 292.93701
-323.11401 -222.52299 292.93701
-323.11401 -221.966 292.93701
-323.11401 -221.409 292.93701
-323.11401 -220.85201 292.93701
-317.11099 -197.69099 291.63699
-317.11099 -197.13699 291.63699
-317.11099 -196.582 291.63699
-317.11099 -196.028 291.63699
-317.11099 -195.47301 291.63699
-317.11099 -194.91901 291.63699
-317.11099 -194.364 291.63699
-317.11099 -193.81 291.63699
-317.11099 -193.255 291.63699
-317.11099 -192.7 291.63699
-317.11099 -192.146 291.63699
-317.11099 -191.591 291.63699
-317.11099 -191.037 291.63699
-317.11099 -190.48199 291.63699
-317.11099 -189.92799 291.63699
-317.11099 -189.373 291.63699
-317.11099 -188.819 291.63699
-317.11099 -188.26401 291.63699
-317.11099 -187.71001 291.63699
-317.11099 -187.155 291.63699
-317.11099 -186.601 291.63699
-317.11099 -186.04601 291.63699
-317.11099 -185.491 291.63699
-317.11099 -184.937 291.63699
-317.11099 -184.382 291.63699
-317.11099 -183.828 291.63699
-317.11099 -183.27299 291.63699
-317.11099 -182.71899 291.63699
-317.11099 -182.164 291.63699
-317.11099 -181.61 291.63699
-317.11099 -181.05499 291.63699
-317.11099 -180.50101 291.63699
-317.11099 -179.946 291.63699
-317.11099 -179.392 291.63699
-317.11099 -178.83701 291.63699
-317.11099 -178.283 291.63699
-317.11099 -177.728 291.63699
-317.11099 -177.173 291.63699
-317.11099 -176.619 291.63699
-317.11099 -176.064 291.63699
-317.11099 -175.50999 291.63699
-317.11099 -174.955 291.63699
-317.11099 -174.401 291.63699
-317.11099 -173.84599 291.63699
-317.11099 -173.29201 291.63699
-317.11099 -172.737 291.63699
-317.11099 -172.183 291.63699
-317.11099 -171.62801 291.63699
-317.11099 -171.07401 291.63699
-317.11099 -170.519 291.63699
-317.11099 -169.965 291.63699
-311.16101 -155.412 290.349
-311.16101 -154.86 290.349
-311.16101 -151.547 290.349
-311.16101 -150.995 290.349
-311.16101 -150.44299 290.349
-311.16101 -149.89101 290.349
-311.16101 -149.339 290.349
-311.16101 -148.787 290.349
-311.16101 -148.235 290.349
-311.16101 -147.683 290.349
-311.16101 -147.131 290.349
-311.16101 -146.578 290.349
-311.16101 -146.026 290.349
-311.16101 -145.474 290.349
-311.16101 -144.922 290.349
-311.16101 -144.37 290.349
-311.16101 -143.81799 290.349
-311.16101 -143.26601 290.349
-311.16101 -142.714 290.349
-311.16101 -142.162 290.349
-311.16101 -141.61 290.349
-311.16101 -141.058 290.349
-311.16101 -140.505 290.349
-311.16101 -139.953 290.349
-311.16101 -139.401 290.349
-311.16101 -138.849 290.349
-311.16101 -138.297 290.349
-311.16101 -137.745 290.349
-311.16101 -137.19299 290.349
-311.16101 -136.64101 290.349
-311.16101 -136.089 290.349
-311.16101 -135.537 290.349
-311.16101 -134.985 290.349
-311.16101 -134.433 290.349
-311.16101 -133.88 290.349
-311.16101 -133.328 290.349
-311.16101 -132.776 290.349
-311.16101 -132.224 290.349
-311.16101 -131.672 290.349
-311.16101 -131.12 290.349
-311.16101 -130.56799 290.349
-311.16101 -130.01601 290.349
-311.16101 -129.464 290.349
-311.16101 -128.912 290.349
-311.16101 -128.36 290.349
-311.16101 -127.808 290.349
-311.16101 -127.255 290.349
-311.16101 -126.703 290.349
-311.16101 -126.151 290.349
-311.16101 -125.599 290.349
-311.16101 -125.047 290.349
-311.16101 -124.495 290.349
-311.16101 -123.943 290.349
-311.16101 -123.391 290.349
-311.16101 -122.839 290.349
-311.16101 -122.287 290.349
-305.26401 -95.9151 289.073
-305.26401 -95.365501 289.073
-305.26401 -94.815804 289.073
-305.26401 -94.266098 289.073
-305.26401 -93.716499 289.073
-305.26401 -93.166801 289.073
-305.26401 -92.617203 289.073
-305.26401 -92.067497 289.073
-305.26401 -91.517899 289.073
-305.26401 -90.968201 289.073
-305.26401 -90.418503 289.073
-305.26401 -89.868896 289.073
-305.26401 -89.319199 289.073
-305.26401 -88.7696 289.073
-305.26401 -88.219902 289.073
-305.26401 -87.670303 289.073
-305.26401 -87.120598 289.073
-305.26401 -86.5709 289.073
-305.26401 -86.021301 289.073
-305.26401 -85.471603 289.073
-305.26401 -84.921997 289.073
-305.26401 -84.372299 289.073
-305.26401 -83.822701 289.073
-305.26401 -83.273003 289.073
-305.26401 -82.723297 289.073
-305.26401 -82.173698 289.073
-305.26401 -81.624001 289.073
-305.26401 -81.074402 289.073
-305.26401 -80.524696 289.073
-305.26401 -79.975098 289.073
-305.26401 -79.4254 289.073
-305.26401 -78.875702 289.073
-305.26401 -78.326103 289.073
-305.26401 -77.776398 289.073
-305.26401 -77.226799 289.073
-305.26401 -76.677101 289.073
-305.26401 -76.127502 289.073
-305.26401 -75.577797 289.073
-305.26401 -75.028198 289.073
-305.26401 -74.4785 289.073
-305.26401 -73.928802 289.073
-305.26401 -73.379204 289.073
-305.26401 -72.829498 289.073
-305.26401 -72.2799 289.073
-305.26401 -71.730202 289.073
-305.26401 -71.180603 289.073
-305.26401 -70.630898 289.073
-305.26401 -70.0812 289.073
-305.26401 -69.531601 289.073
-305.26401 -68.981903 289.073
-305.26401 -68.432297 289.073
-305.26401 -67.882599 289.073
-305.26401 -67.333 289.073
-305.26401 -66.783302 289.073
-305.26401 -66.233597 289.073
-305.26401 -65.683998 289.073
-305.26401 -65.1343 289.073
-287.87799 87.071297 285.30899
-287.87799 98.463799 285.30899
-287.87799 99.006302 285.30899
-287.87799 99.548798 285.30899
-287.87799 100.091 285.30899
-287.87799 100.634 285.30899
-287.87799 101.176 285.30899
-287.87799 101.719 285.30899
-287.87799 102.261 285.30899
-287.87799 102.804 285.30899
-287.87799 103.346 285.30899
-287.87799 103.889 285.30899
-287.87799 104.431 285.30899
-287.87799 104.974 285.30899
-287.87799 105.516 285.30899
-287.87799 106.059 285.30899
-287.87799 106.601 285.30899
-287.87799 107.144 285.30899
-287.87799 107.686 285.30899
-287.87799 108.229 285.30899
-287.87799 108.771 285.30899
-287.87799 109.314 285.30899
-287.87799 109.856 285.30899
-287.87799 110.399 285.30899
-287.87799 110.941 285.30899
-287.87799 111.484 285.30899
-287.87799 112.026 285.30899
-287.87799 112.569 285.30899
-287.87799 113.111 285.30899
-287.87799 113.654 285.30899
-287.87799 114.196 285.30899
-287.87799 114.739 285.30899
-287.87799 115.281 285.30899
-287.87799 115.824 285.30899
-287.87799 116.366 285.30899
-287.87799 116.909 285.30899
-287.87799 117.451 285.30899
-287.87799 117.994 285.30899
-287.87799 118.536 285.30899
-287.87799 119.079 285.30899
-287.87799 119.621 285.30899
-287.87799 120.164 285.30899
-287.87799 120.706 285.30899
-287.87799 121.249 285.30899
-287.87799 121.791 285.30899
-287.87799 122.334 285.30899
-287.87799 122.876 285.30899
-287.87799 123.419 285.30899
-287.87799 123.961 285.30899
-287.87799 124.504 285.30899
-287.87799 125.046 285.30899
-287.87799 125.589 285.30899
-287.87799 126.131 285.30899
-287.87799 126.674 285.30899
-287.87799 127.216 285.30899
-287.87799 127.759 285.30899
-287.87799 128.30099 285.30899
-287.87799 128.84399 285.30899
-287.87799 129.386 285.30899
-287.87799 129.929 285.30899
-287.87799 130.47099 285.30899
-287.87799 131.01401 285.30899
-287.87799 131.556 285.30899
-287.87799 132.099 285.30899
-287.87799 132.64101 285.30899
-287.87799 133.18401 285.30899
-287.87799 133.726 285.30899
-287.87799 134.269 285.30899
-287.87799 134.811 285.30899
-287.87799 135.354 285.30899
-287.87799 135.896 285.30899
-287.87799 136.439 285.30899
-287.87799 136.981 285.30899
-287.87799 137.524 285.30899
-287.87799 138.06599 285.30899
-287.87799 138.60899 285.30899
-287.87799 139.151 285.30899
-287.87799 139.694 285.30899
-287.87799 140.23599 285.30899
-287.87799 140.77901 285.30899
-287.87799 141.321 285.30899
-287.87799 141.864 285.30899
-287.87799 142.40601 285.30899
-287.87799 142.94901 285.30899
-287.87799 143.491 285.30899
-287.87799 145.661 285.30899
-287.87799 146.20399 285.30899
-287.87799 146.746 285.30899
-287.87799 147.289 285.30899
-282.18399 187.70399 284.07599
-282.18399 188.244 284.07599
-282.18399 188.785 284.07599
-282.18399 189.325 284.07599
-282.18399 189.86501 284.07599
-282.18399 190.405 284.07599
-282.18399 190.94501 284.07599
-282.18399 191.485 284.07599
-282.18399 192.02499 284.07599
-282.18399 192.56599 284.07599
-282.18399 193.106 284.07599
-282.18399 193.646 284.07599
-282.18399 194.186 284.07599
-282.18399 194.726 284.07599
-282.18399 195.26601 284.07599
-282.18399 195.80701 284.07599
-282.18399 196.347 284.07599
-282.18399 196.88699 284.07599
-282.18399 197.427 284.07599
-282.18399 197.967 284.07599
-282.18399 198.507 284.07599
-282.18399 199.047 284.07599
-282.18399 199.588 284.07599
-282.18399 200.12801 284.07599
-282.18399 200.668 284.07599
-282.18399 201.20799 284.07599
-282.18399 201.748 284.07599
-282.18399 202.28799 284.07599
-282.18399 202.82899 284.07599
-282.18399 203.369 284.07599
-282.18399 203.909 284.07599
-282.18399 204.44901 284.07599
-282.18399 204.989 284.07599
-282.18399 205.52901 284.07599
-282.18399 206.07001 284.07599
-282.18399 206.61 284.07599
-282.18399 207.14999 284.07599
-282.18399 207.69 284.07599
-282.18399 208.23 284.07599
-282.18399 208.77 284.07599
-282.18399 209.31 284.07599
-282.18399 209.851 284.07599
-282.18399 210.39101 284.07599
-282.18399 210.931 284.07599
-282.18399 211.47099 284.07599
-282.18399 212.011 284.07599
-282.18399 212.55099 284.07599
-282.18399 213.092 284.07599
-282.18399 213.632 284.07599
-282.18399 214.172 284.07599
-282.18399 214.71201 284.07599
-282.18399 215.252 284.07599
-282.18399 215.79201 284.07599
-282.18399 216.332 284.07599
-282.18399 216.873 284.07599
-282.18399 217.41299 284.07599
-282.18399 217.953 284.07599
-282.18399 218.493 284.07599
-282.18399 219.033 284.07599
-282.18399 219.573 284.07599
-282.18399 220.114 284.07599
-282.18399 220.65401 284.07599
-282.18399 221.194 284.07599
-282.18399 221.73399 284.07599
-282.18399 222.274 284.07599
-282.18399 222.814 284.07599
-282.18399 223.354 284.07599
-282.18399 223.895 284.07599
-282.18399 224.435 284.07599
-282.18399 224.97501 284.07599
-282.18399 225.515 284.07599
-282.18399 226.05499 284.07599
-282.18399 226.595 284.07599
-282.18399 227.136 284.07599
-282.18399 227.67599 284.07599
-282.18399 228.216 284.07599
-282.18399 228.756 284.07599
-282.18399 229.29601 284.07599
-282.18399 229.836 284.07599
-282.18399 230.377 284.07599
-282.18399 230.91701 284.07599
-282.18399 231.457 284.07599
-282.18399 231.99699 284.07599
-282.18399 232.537 284.07599
-282.18399 233.077 284.07599
-282.18399 233.617 284.07599
-282.18399 234.158 284.07599
-282.18399 234.698 284.07599
-282.18399 235.23801 284.07599
-282.18399 235.778 284.07599
-282.18399 236.31799 284.07599
-282.18399 236.858 284.07599
-282.18399 237.399 284.07599
-282.18399 237.939 284.07599
-282.18399 238.479 284.07599
-282.18399 239.019 284.07599
-282.18399 239.55901 284.07599
-282.18399 240.099 284.07599
-282.18399 240.63901 284.07599
-282.18399 241.17999 284.07599
-282.18399 241.72 284.07599
-282.18399 242.25999 284.07599
-282.18399 242.8 284.07599
-282.18399 243.34 284.07599
-282.18399 243.88 284.07599
-282.18399 244.42101 284.07599
-282.18399 244.961 284.07599
-282.18399 245.50101 284.07599
-282.18399 246.041 284.07599
-282.18399 246.58099 284.07599
-282.18399 247.121 284.07599
-282.18399 247.662 284.07599
-282.18399 248.202 284.07599
-282.18399 248.742 284.07599
-282.18399 249.282 284.07599
-282.18399 249.82201 284.07599
-282.18399 250.362 284.07599
-282.18399 250.90199 284.07599
-282.18399 251.44299 284.07599
-282.18399 251.983 284.07599
-282.18399 252.52299 284.07599
-282.18399 253.063 284.07599
-282.18399 256.84399 284.07599
-282.18399 260.08499 284.07599
-276.53799 279.94101 282.854
-276.53799 280.479 282.854
-276.53799 282.63101 282.854
-276.53799 283.168 282.854
-276.53799 283.70599 282.854
-276.53799 284.24399 282.854
-276.53799 288.009 282.854
-276.53799 288.547 282.854
-276.53799 289.08499 282.854
-276.53799 289.62201 282.854
-276.53799 290.16 282.854
-276.53799 290.698 282.854
-276.53799 291.23599 282.854
-276.53799 291.77399 282.854
-276.53799 292.31201 282.854
-276.53799 292.849 282.854
-276.53799 293.38699 282.854
-276.53799 293.92499 282.854
-276.53799 294.46301 282.854
-276.53799 295.00101 282.854
-276.53799 295.539 282.854
-276.53799 296.07599 282.854
-276.53799 296.61401 282.854
-276.53799 297.15201 282.854
-276.53799 297.69 282.854
-276.53799 298.228 282.854
-276.53799 298.76599 282.854
-276.53799 299.30301 282.854
-276.53799 299.841 282.854
-276.53799 300.379 282.854
-276.53799 300.91699 282.854
-276.53799 301.45499 282.854
-276.53799 301.99301 282.854
-276.53799 302.53 282.854
-276.53799 303.06799 282.854
-276.53799 303.60599 282.854
-276.53799 304.14401 282.854
-276.53799 304.68201 282.854
-276.53799 305.22 282.854
-276.53799 305.75699 282.854
-276.53799 306.29501 282.854
-276.53799 306.83301 282.854
-276.53799 307.371 282.854
-276.53799 307.909 282.854
-276.53799 308.44699 282.854
-276.53799 308.98401 282.854
-276.53799 309.522 282.854
-276.53799 310.06 282.854
-276.53799 310.59799 282.854
-276.53799 311.13599 282.854
-276.53799 311.67401 282.854
-276.53799 312.211 282.854
-276.53799 312.74899 282.854
-127.171 29.771601 250.517
-122.778 28.709499 249.56599
-118.418 28.128201 248.62199
-118.418 28.600901 248.62199
-118.418 29.0737 248.62199
-118.418 29.5464 248.62199
-118.418 30.0191 248.62199
-118.418 30.491899 248.62199
-114.091 26.609301 247.685
-114.091 27.080299 247.685
-114.091 27.551201 247.685
-114.091 28.0222 247.685
-114.091 29.906 247.685
-114.091 30.377001 247.685
-114.091 30.848 247.685
-109.797 26.509399 246.756
-109.797 26.9786 246.756
-109.797 27.4478 246.756
-105.534 9.1150599 245.83299
-105.534 25.475401 245.83299
-101.304 25.380501 244.91701
-330.57401 -324.004 287.702
-330.57401 -323.444 287.702
-330.57401 -322.884 287.702
-330.57401 -322.32401 287.702
-330.57401 -321.76401 287.702
-330.57401 -321.203 287.702
-330.57401 -320.64301 287.702
-330.57401 -320.08301 287.702
-330.57401 -319.52301 287.702
-330.57401 -318.96301 287.702
-330.57401 -318.40302 287.702
-330.57401 -317.84299 287.702
-330.57401 -317.28299 287.702
-330.57401 -316.72299 287.702
-330.57401 -316.16299 287.702
-330.57401 -315.603 287.702
-330.57401 -315.043 287.702
-330.57401 -314.483 287.702
-330.57401 -313.922 287.702
-330.57401 -313.362 287.702
-330.57401 -312.802 287.702
-330.57401 -312.242 287.702
-330.57401 -311.68201 287.702
-330.57401 -311.12201 287.702
-330.57401 -310.56201 287.702
-330.57401 -310.00201 287.702
-330.57401 -309.44199 287.702
-330.57401 -308.88199 287.702
-330.57401 -308.32199 287.702
-330.57401 -307.76199 287.702
-330.57401 -307.202 287.702
-330.57401 -306.642 287.702
-330.57401 -306.08099 287.702
-330.57401 -305.521 287.702
-330.57401 -304.961 287.702
-330.57401 -304.401 287.702
-330.57401 -303.841 287.702
-330.57401 -303.28101 287.702
-330.57401 -302.72101 287.702
-330.57401 -302.16101 287.702
-330.57401 -301.60101 287.702
-330.57401 -301.04099 287.702
-330.57401 -300.48099 287.702
-330.57401 -299.92099 287.702
-330.57401 -299.36099 287.702
-330.57401 -298.79999 287.702
-330.57401 -298.23999 287.702
-330.57401 -297.67999 287.702
-330.57401 -297.12 287.702
-330.57401 -296.56 287.702
-330.57401 -296 287.702
-330.57401 -295.44 287.702
-330.57401 -294.88 287.702
-330.57401 -294.32001 287.702
-330.57401 -293.76001 287.702
-330.57401 -293.20001 287.702
-330.57401 -292.64001 287.702
-330.57401 -292.07999 287.702
-324.505 -275.16501 286.41901
-324.505 -274.60699 286.41901
-324.505 -274.04901 286.41901
-324.505 -271.26099 286.41901
-324.505 -270.70401 286.41901
-324.505 -270.146 286.41901
-324.505 -269.58899 286.41901
-324.505 -269.03101 286.41901
-324.505 -268.474 286.41901
-324.505 -267.91599 286.41901
-324.505 -267.358 286.41901
-324.505 -266.80099 286.41901
-324.505 -266.24301 286.41901
-324.505 -265.686 286.41901
-324.505 -265.12799 286.41901
-324.505 -264.57101 286.41901
-324.505 -264.013 286.41901
-324.505 -263.45499 286.41901
-324.505 -262.89801 286.41901
-324.505 -262.34 286.41901
-324.505 -261.78299 286.41901
-324.505 -261.22501 286.41901
-324.505 -260.66699 286.41901
-324.505 -260.10999 286.41901
-324.505 -259.552 286.41901
-324.505 -258.995 286.41901
-324.505 -258.43701 286.41901
-324.505 -257.88 286.41901
-324.505 -257.32199 286.41901
-324.505 -256.76401 286.41901
-324.505 -256.207 286.41901
-324.505 -255.649 286.41901
-324.505 -255.092 286.41901
-324.505 -254.534 286.41901
-324.505 -253.97701 286.41901
-324.505 -253.41901 286.41901
-324.505 -252.86099 286.41901
-324.505 -252.304 286.41901
-324.505 -251.746 286.41901
-324.505 -251.189 286.41901
-324.505 -250.631 286.41901
-324.505 -250.07401 286.41901
-324.505 -249.51601 286.41901
-324.505 -248.95799 286.41901
-324.505 -248.401 286.41901
-324.505 -247.843 286.41901
-324.505 -247.286 286.41901
-318.48999 -224.539 285.147
-318.48999 -223.983 285.147
-318.48999 -223.42799 285.147
-318.48999 -222.31799 285.147
-318.48999 -221.763 285.147
-318.48999 -221.20799 285.147
-318.48999 -220.653 285.147
-318.48999 -220.09801 285.147
-318.48999 -219.543 285.147
-318.48999 -218.98801 285.147
-318.48999 -218.43201 285.147
-318.48999 -217.877 285.147
-318.48999 -217.32201 285.147
-318.48999 -216.767 285.147
-318.48999 -216.21201 285.147
-318.48999 -215.657 285.147
-318.48999 -215.10201 285.147
-318.48999 -214.547 285.147
-318.48999 -213.992 285.147
-318.48999 -213.437 285.147
-318.48999 -212.881 285.147
-318.48999 -212.326 285.147
-318.48999 -211.771 285.147
-318.48999 -211.216 285.147
-318.48999 -210.661 285.147
-318.48999 -210.106 285.147
-318.48999 -209.55099 285.147
-318.48999 -208.996 285.147
-318.48999 -208.44099 285.147
-318.48999 -207.88499 285.147
-318.48999 -207.33 285.147
-318.48999 -206.77499 285.147
-318.48999 -206.22 285.147
-318.48999 -205.66499 285.147
-318.48999 -205.11 285.147
-318.48999 -204.55499 285.147
-318.48999 -204 285.147
-318.48999 -203.44501 285.147
-318.48999 -202.89 285.147
-318.48999 -202.334 285.147
-318.48999 -201.77901 285.147
-318.48999 -201.224 285.147
-318.48999 -200.66901 285.147
-318.48999 -200.114 285.147
-318.48999 -199.55901 285.147
-318.48999 -199.004 285.147
-318.48999 -198.44901 285.147
-318.48999 -197.894 285.147
-318.48999 -197.339 285.147
-318.48999 -196.783 285.147
-318.48999 -196.228 285.147
-318.48999 -195.673 285.147
-318.48999 -195.118 285.147
-312.52802 -176.01801 283.88599
-312.52802 -175.465 283.88599
-312.52802 -174.91299 283.88599
-312.52802 -174.36 283.88599
-312.52802 -173.808 283.88599
-312.52802 -173.255 283.88599
-312.52802 -172.702 283.88599
-312.52802 -172.14999 283.88599
-312.52802 -171.597 283.88599
-312.52802 -171.04401 283.88599
-312.52802 -170.492 283.88599
-312.52802 -169.939 283.88599
-312.52802 -169.386 283.88599
-312.52802 -168.834 283.88599
-312.52802 -168.28101 283.88599
-312.52802 -167.728 283.88599
-312.52802 -167.17599 283.88599
-312.52802 -166.623 283.88599
-312.52802 -166.07001 283.88599
-312.52802 -165.51801 283.88599
-312.52802 -164.965 283.88599
-312.52802 -164.41299 283.88599
-312.52802 -163.86 283.88599
-312.52802 -163.30701 283.88599
-312.52802 -162.755 283.88599
-312.52802 -162.202 283.88599
-312.52802 -161.649 283.88599
-312.52802 -161.097 283.88599
-312.52802 -160.54401 283.88599
-312.52802 -159.991 283.88599
-312.52802 -159.439 283.88599
-312.52802 -158.886 283.88599
-312.52802 -158.33299 283.88599
-312.52802 -157.78101 283.88599
-312.52802 -157.228 283.88599
-312.52802 -156.675 283.88599
-312.52802 -156.123 283.88599
-312.52802 -155.57001 283.88599
-312.52802 -155.01801 283.88599
-312.52802 -154.465 283.88599
-312.52802 -153.912 283.88599
-312.52802 -153.36 283.88599
-312.52802 -152.80701 283.88599
-312.52802 -152.254 283.88599
-312.52802 -151.702 283.88599
-312.52802 -151.149 283.88599
-312.52802 -150.59599 283.88599
-306.61899 -124.624 282.63599
-306.61899 -124.073 282.63599
-306.61899 -123.523 282.63599
-306.61899 -122.973 282.63599
-306.61899 -122.423 282.63599
-306.61899 -121.873 282.63599
-306.61899 -121.322 282.63599
-306.61899 -120.772 282.63599
-306.61899 -120.222 282.63599
-306.61899 -119.672 282.63599
-306.61899 -119.121 282.63599
-306.61899 -118.571 282.63599
-306.61899 -118.021 282.63599
-306.61899 -117.471 282.63599
-306.61899 -116.921 282.63599
-306.61899 -116.37 282.63599
-306.61899 -115.82 282.63599
-306.61899 -115.27 282.63599
-306.61899 -114.72 282.63599
-306.61899 -114.17 282.63599
-306.61899 -113.619 282.63599
-306.61899 -113.069 282.63599
-306.61899 -112.519 282.63599
-306.61899 -111.969 282.63599
-306.61899 -111.418 282.63599
-306.61899 -110.868 282.63599
-306.61899 -110.318 282.63599
-306.61899 -109.768 282.63599
-306.61899 -109.218 282.63599
-306.61899 -108.667 282.63599
-306.61899 -108.117 282.63599
-306.61899 -107.567 282.63599
-306.61899 -107.017 282.63599
-306.61899 -106.467 282.63599
-306.61899 -105.916 282.63599
-306.61899 -105.366 282.63599
-306.61899 -104.816 282.63599
-306.61899 -104.266 282.63599
-306.61899 -103.715 282.63599
-306.61899 -103.165 282.63599
-306.61899 -102.615 282.63599
-306.61899 -102.065 282.63599
-306.61899 -101.515 282.63599
-306.61899 -100.964 282.63599
-306.61899 -100.414 282.63599
-306.61899 -99.863998 282.63599
-306.61899 -99.313698 282.63599
-306.61899 -98.763496 282.63599
-306.61899 -98.213303 282.63599
-306.61899 -97.663101 282.63599
-306.61899 -97.1129 282.63599
-306.61899 -65.750603 282.63599
-289.19901 93.675003 278.953
-289.19901 94.218102 278.953
-289.19901 94.761101 278.953
-289.19901 95.847198 278.953
-289.19901 96.390297 278.953
-289.19901 96.933296 278.953
-289.19901 97.476303 278.953
-289.19901 98.019402 278.953
-289.19901 98.562401 278.953
-289.19901 100.735 278.953
-289.19901 101.278 278.953
-289.19901 101.821 278.953
-289.19901 102.364 278.953
-283.492 140.31 277.746
-283.492 140.851 277.746
-283.492 141.392 277.746
-283.492 141.93201 277.746
-283.492 142.47301 277.746
-283.492 143.01401 277.746
-283.492 143.554 277.746
-283.492 144.095 277.746
-283.492 144.636 277.746
-283.492 145.177 277.746
-283.492 145.717 277.746
-283.492 146.258 277.746
-283.492 146.799 277.746
-283.492 147.339 277.746
-283.492 147.88 277.746
-283.492 148.42101 277.746
-283.492 148.961 277.746
-283.492 149.502 277.746
-283.492 150.043 277.746
-283.492 150.58299 277.746
-283.492 151.12399 277.746
-283.492 151.66499 277.746
-283.492 152.20599 277.746
-283.492 152.746 277.746
-283.492 153.287 277.746
-283.492 153.828 277.746
-283.492 154.368 277.746
-283.492 154.909 277.746
-283.492 155.45 277.746
-283.492 155.99001 277.746
-283.492 156.53101 277.746
-283.492 157.07201 277.746
-283.492 157.61301 277.746
-283.492 158.153 277.746
-283.492 158.694 277.746
-283.492 159.235 277.746
-283.492 159.77499 277.746
-283.492 160.31599 277.746
-283.492 160.85699 277.746
-283.492 161.397 277.746
-283.492 161.938 277.746
-283.492 162.479 277.746
-283.492 163.019 277.746
-283.492 163.56 277.746
-283.492 164.101 277.746
-283.492 164.642 277.746
-283.492 165.18201 277.746
-283.492 165.72301 277.746
-283.492 166.26401 277.746
-283.492 166.804 277.746
-283.492 167.345 277.746
-283.492 167.886 277.746
-283.492 168.42599 277.746
-283.492 168.967 277.746
-283.492 169.508 277.746
-283.492 170.048 277.746
-283.492 170.589 277.746
-283.492 171.13 277.746
-283.492 171.67101 277.746
-283.492 172.211 277.746
-283.492 172.752 277.746
-283.492 173.293 277.746
-283.492 173.83299 277.746
-283.492 174.37399 277.746
-283.492 174.91499 277.746
-283.492 175.455 277.746
-283.492 175.996 277.746
-283.492 176.537 277.746
-283.492 177.078 277.746
-283.492 177.618 277.746
-283.492 178.159 277.746
-283.492 178.7 277.746
-283.492 179.24001 277.746
-283.492 179.78101 277.746
-283.492 180.32201 277.746
-283.492 180.862 277.746
-283.492 181.403 277.746
-283.492 181.944 277.746
-283.492 182.48399 277.746
-283.492 183.02499 277.746
-283.492 183.56599 277.746
-283.492 184.10699 277.746
-283.492 184.647 277.746
-283.492 185.188 277.746
-283.492 185.729 277.746
-283.492 186.269 277.746
-283.492 186.81 277.746
-283.492 187.351 277.746
-283.492 187.89101 277.746
-283.492 188.43201 277.746
-283.492 188.97301 277.746
-283.492 189.513 277.746
-283.492 190.054 277.746
-283.492 190.595 277.746
-283.492 191.136 277.746
-283.492 195.461 277.746
-283.492 197.08299 277.746
-283.492 197.62399 277.746
-283.492 198.16499 277.746
-283.492 198.705 277.746
-283.492 199.246 277.746
-283.492 199.787 277.746
-277.83499 220.461 276.54999
-277.83499 220.99899 276.54999
-277.83499 221.53799 276.54999
-277.83499 222.076 276.54999
-277.83499 228.536 276.54999
-277.83499 229.075 276.54999
-277.83499 229.61301 276.54999
-277.83499 230.151 276.54999
-277.83499 230.69 276.54999
-277.83499 231.228 276.54999
-277.83499 231.767 276.54999
-277.83499 232.30499 276.54999
-277.83499 232.843 276.54999
-277.83499 233.382 276.54999
-277.83499 233.92 276.54999
-277.83499 234.45799 276.54999
-277.83499 234.99699 276.54999
-277.83499 235.535 276.54999
-277.83499 236.073 276.54999
-277.83499 236.612 276.54999
-277.83499 237.14999 276.54999
-277.83499 237.689 276.54999
-277.83499 238.22701 276.54999
-277.83499 238.765 276.54999
-277.83499 239.304 276.54999
-277.83499 239.842 276.54999
-277.83499 240.38 276.54999
-277.83499 240.91901 276.54999
-277.83499 241.457 276.54999
-277.83499 241.996 276.54999
-277.83499 242.534 276.54999
-277.83499 243.07201 276.54999
-277.83499 243.61099 276.54999
-277.83499 244.149 276.54999
-277.83499 244.687 276.54999
-277.83499 245.226 276.54999
-277.83499 245.76401 276.54999
-277.83499 246.302 276.54999
-277.83499 246.841 276.54999
-277.83499 247.379 276.54999
-277.83499 247.918 276.54999
-277.83499 248.45599 276.54999
-277.83499 248.994 276.54999
-277.83499 249.533 276.54999
-277.83499 250.071 276.54999
-277.83499 250.60899 276.54999
-277.83499 251.14799 276.54999
-277.83499 251.686 276.54999
-277.83499 252.224 276.54999
-277.83499 252.763 276.54999
-277.83499 253.30099 276.54999
-277.83499 253.84 276.54999
-277.83499 254.37801 276.54999
-277.83499 254.916 276.54999
-277.83499 255.455 276.54999
-277.83499 255.993 276.54999
-277.83499 256.53101 276.54999
-277.83499 257.07001 276.54999
-277.83499 257.608 276.54999
-277.83499 258.146 276.54999
-277.83499 258.685 276.54999
-277.83499 259.22299 276.54999
-277.83499 259.76199 276.54999
-277.83499 260.29999 276.54999
-277.83499 260.83801 276.54999
-277.83499 261.37701 276.54999
-277.83499 261.91501 276.54999
-277.83499 262.453 276.54999
-277.83499 262.992 276.54999
-277.83499 263.53 276.54999
-277.83499 264.069 276.54999
-277.83499 264.60699 276.54999
-277.83499 265.14499 276.54999
-277.83499 265.68399 276.54999
-277.83499 266.22198 276.54999
-277.83499 266.76001 276.54999
-277.83499 267.29901 276.54999
-277.83499 267.83701 276.54999
-277.83499 268.375 276.54999
-277.83499 268.914 276.54999
-277.83499 269.452 276.54999
-277.83499 269.991 276.54999
-277.83499 270.52899 276.54999
-277.83499 271.06699 276.54999
-277.83499 271.60599 276.54999
-277.83499 272.14401 276.54999
-277.83499 272.68201 276.54999
-277.83499 273.22101 276.54999
-277.83499 273.759 276.54999
-277.83499 274.297 276.54999
-277.83499 274.836 276.54999
-277.83499 275.37399 276.54999
-277.83499 275.91299 276.54999
-277.83499 276.45099 276.54999
-277.83499 276.98901 276.54999
-277.83499 277.52802 276.54999
-277.83499 278.06601 276.54999
-277.83499 278.604 276.54999
-277.83499 279.14301 276.54999
-277.83499 279.681 276.54999
-277.83499 280.21899 276.54999
-277.83499 280.758 276.54999
-277.83499 281.29599 276.54999
-277.83499 281.83499 276.54999
-277.83499 282.37299 276.54999
-277.83499 282.91101 276.54999
-277.83499 283.45001 276.54999
-277.83499 283.98801 276.54999
-277.83499 284.526 276.54999
-277.83499 285.065 276.54999
-277.83499 285.603 276.54999
-277.83499 286.142 276.54999
-277.83499 286.67999 276.54999
-277.83499 287.21799 276.54999
-277.83499 287.75699 276.54999
-277.83499 288.29501 276.54999
-277.83499 288.83301 276.54999
-277.83499 289.37201 276.54999
-277.83499 289.91 276.54999
-277.83499 290.448 276.54999
-277.83499 290.987 276.54999
-277.83499 291.52499 276.54999
-277.83499 292.064 276.54999
-277.83499 293.67899 276.54999
-277.83499 294.21701 276.54999
-277.83499 294.755 276.54999
-277.83499 295.29401 276.54999
-277.83499 295.832 276.54999
-277.83499 296.37 276.54999
-277.83499 296.909 276.54999
-137.091 -30.5072 246.789
-132.623 -39.9622 245.84399
-132.623 -39.483601 245.84399
-132.623 -39.0051 245.84399
-132.623 -38.526501 245.84399
-132.623 -38.047901 245.84399
-132.623 -37.569302 245.84399
-132.623 -37.090698 245.84399
-132.623 -36.612099 245.84399
-132.623 -36.133499 245.84399
-132.623 -35.6549 245.84399
-132.623 -35.1763 245.84399
-132.623 -34.6978 245.84399
-132.623 -34.2192 245.84399
-132.623 -33.740601 245.84399
-132.623 -33.262001 245.84399
-132.623 -32.783401 245.84399
-132.623 -32.304798 245.84399
-132.623 -31.8262 245.84399
-132.623 -31.347601 245.84399
-132.623 -30.868999 245.84399
-132.623 -30.3904 245.84399
-128.188 -31.2281 244.90601
-128.188 -30.751301 244.90601
-128.188 -30.2745 244.90601
-128.188 57.4501 244.90601
-128.188 57.926899 244.90601
-123.787 -30.1595 243.976
-123.787 -29.6845 243.976
-123.787 -29.2096 243.976
-123.787 -14.961 243.976
-123.787 -14.4861 243.976
-123.787 -14.0111 243.976
-123.787 -13.5362 243.976
-123.787 -13.0612 243.976
-123.787 3.56215 243.976
-123.787 52.007301 243.976
-123.787 52.4823 243.976
-123.787 52.957199 243.976
-123.787 53.432201 243.976
-123.787 53.907101 243.976
-123.787 54.382099 243.976
-123.787 54.856998 243.976
-123.787 55.332001 243.976
-123.787 55.8069 243.976
-123.787 56.281898 243.976
-123.787 56.756901 243.976
-123.787 57.2318 243.976
-119.42 -28.6259 243.052
-119.42 -22.474899 243.052
-119.42 -22.001699 243.052
-119.42 -21.528601 243.052
-119.42 -21.055401 243.052
-119.42 -20.582199 243.052
-119.42 -20.1091 243.052
-119.42 -19.6359 243.052
-119.42 -19.1628 243.052
-119.42 -18.6896 243.052
-119.42 -18.216499 243.052
-119.42 -17.743299 243.052
-119.42 -17.270201 243.052
-119.42 -16.797001 243.052
-119.42 -16.323799 243.052
-119.42 -15.8507 243.052
-119.42 -15.3775 243.052
-119.42 -14.9044 243.052
-119.42 -14.4312 243.052
-119.42 -13.9581 243.052
-119.42 -13.4849 243.052
-119.42 -13.0118 243.052
-119.42 -12.5386 243.052
-119.42 -12.0655 243.052
-119.42 -11.5923 243.052
-119.42 -11.1191 243.052
-119.42 8.2802095 243.052
-119.42 50.864201 243.052
-119.42 51.337299 243.052
-119.42 51.810501 243.052
-119.42 52.2836 243.052
-119.42 52.756802 243.052
-115.086 -12.02 242.136
-115.086 -11.5486 242.136
-115.086 -11.0772 242.136
-115.086 -10.6058 242.136
-115.086 -10.1345 242.136
-115.086 3.53528 242.136
-115.086 4.00665 242.136
-115.086 5.4207602 242.136
-115.086 5.8921299 242.136
-115.086 6.3635001 242.136
-115.086 6.8348799 242.136
-115.086 7.3062501 242.136
-115.086 7.7776198 242.136
-115.086 8.2489901 242.136
-115.086 8.7203598 242.136
-115.086 9.1917295 242.136
-115.086 11.0772 242.136
-115.086 27.1038 242.136
-115.086 27.575199 242.136
-115.086 28.0466 242.136
-115.086 28.5179 242.136
-115.086 28.9893 242.136
-115.086 29.460699 242.136
-115.086 29.931999 242.136
-115.086 30.4034 242.136
-110.784 -9.6267996 241.226
-110.784 -1.174 241.226
-110.784 -0.7044 241.226
-110.784 -0.2348 241.226
-110.784 0.2348 241.226
-110.784 0.7044 241.226
-110.784 1.174 241.226
-110.784 1.6436 241.226
-110.784 2.1131999 241.226
-110.784 2.5827999 241.226
-110.784 3.0524001 241.226
-110.784 3.5220001 241.226
-110.784 3.9916 241.226
-110.784 4.4612002 241.226
-110.784 4.9308 241.226
-110.784 5.4004002 241.226
-110.784 5.8699999 241.226
-110.784 6.3396001 241.226
-110.784 6.8091998 241.226
-110.784 9.1571999 241.226
-110.784 9.6267996 241.226
-110.784 10.0964 241.226
-110.784 10.566 241.226
-110.784 11.0356 241.226
-110.784 11.5052 241.226
-110.784 11.9748 241.226
-110.784 12.4444 241.226
-110.784 12.914 241.226
-110.784 16.670799 241.226
-110.784 17.1404 241.226
-110.784 18.079599 241.226
-110.784 23.245199 241.226
-110.784 23.7148 241.226
-110.784 24.184401 241.226
-110.784 24.653999 241.226
-110.784 25.1236 241.226
-110.784 26.062799 241.226
-110.784 26.5324 241.226
-110.784 27.002001 241.226
-110.784 27.4716 241.226
-110.784 27.9412 241.226
-110.784 28.410801 241.226
-110.784 28.8804 241.226
-110.784 29.35 241.226
-110.784 29.819599 241.226
-110.784 30.2892 241.226
-110.784 30.758801 241.226
-110.784 31.228399 241.226
-110.784 31.698 241.226
-110.784 32.167599 241.226
-110.784 32.637199 241.226
-110.784 33.1068 241.226
-110.784 33.576401 241.226
-110.784 34.046001 241.226
-110.784 34.515598 241.226
-110.784 34.985199 241.226
-110.784 35.4548 241.226
-110.784 35.9244 241.226
-110.784 36.394001 241.226
-110.784 39.681198 241.226
-110.784 40.150799 241.226
-110.784 40.620399 241.226
-110.784 41.09 241.226
-110.784 53.299599 241.226
-110.784 53.769199 241.226
-110.784 54.2388 241.226
-106.514 12.8657 240.323
-106.514 13.3335 240.323
-106.514 13.8013 240.323
-106.514 14.2692 240.323
-106.514 14.737 240.323
-106.514 15.2049 240.323
-106.514 16.1406 240.323
-106.514 16.6084 240.323
-106.514 17.0762 240.323
-106.514 17.5441 240.323
-106.514 18.0119 240.323
-106.514 18.479799 240.323
-106.514 19.415501 240.323
-106.514 19.883301 240.323
-106.514 20.351101 240.323
-106.514 20.819 240.323
-106.514 21.2868 240.323
-106.514 21.7547 240.323
-106.514 22.2225 240.323
-106.514 22.6903 240.323
-106.514 23.158199 240.323
-106.514 23.625999 240.323
-106.514 25.4974 240.323
-106.514 25.9652 240.323
-106.514 34.854198 240.323
-106.514 35.322102 240.323
-106.514 35.789902 240.323
-106.514 36.257801 240.323
-106.514 36.725601 240.323
-106.514 37.193501 240.323
-106.514 37.661301 240.323
-106.514 38.129101 240.323
-106.514 38.597 240.323
-106.514 39.0648 240.323
-106.514 39.5327 240.323
-106.514 41.403999 240.323
-106.514 41.871899 240.323
-106.514 42.339699 240.323
-106.514 42.807598 240.323
-106.514 43.275398 240.323
-106.514 43.743301 240.323
-102.276 -2.09744 239.427
-102.276 37.987 239.427
-98.070099 -2.0896499 238.53799
-93.894897 23.363701 237.655
-331.98099 -327.142 281.142
-331.98099 -326.582 281.142
-331.98099 -326.021 281.142
-331.98099 -325.45999 281.142
-331.98099 -324.89999 281.142
-331.98099 -324.33899 281.142
-331.98099 -323.77802 281.142
-331.98099 -323.21799 281.142
-331.98099 -322.65701 281.142
-331.98099 -322.09601 281.142
-331.98099 -321.53601 281.142
-331.98099 -320.97501 281.142
-331.98099 -320.414 281.142
-331.98099 -319.854 281.142
-331.98099 -319.293 281.142
-331.98099 -318.73199 281.142
-331.98099 -318.172 281.142
-331.98099 -317.61099 281.142
-331.98099 -317.04999 281.142
-331.98099 -316.48999 281.142
-331.98099 -315.92899 281.142
-331.98099 -315.36801 281.142
-331.98099 -314.80801 281.142
-331.98099 -314.24701 281.142
-331.98099 -313.686 281.142
-331.98099 -313.12601 281.142
-331.98099 -312.565 281.142
-331.98099 -312.005 281.142
-331.98099 -311.444 281.142
-331.98099 -310.883 281.142
-325.89999 -291.634 279.88699
-325.89999 -291.07599 279.88699
-325.89999 -290.51801 279.88699
-325.89999 -289.95999 279.88699
-325.89999 -289.40201 279.88699
-325.89999 -288.84299 279.88699
-325.89999 -288.285 279.88699
-325.89999 -287.72699 279.88699
-325.89999 -287.16901 279.88699
-325.89999 -286.61099 279.88699
-325.89999 -286.05301 279.88699
-325.89999 -285.495 279.88699
-325.89999 -284.936 279.88699
-325.89999 -284.37799 279.88699
-325.89999 -283.82001 279.88699
-325.89999 -283.26199 279.88699
-325.89999 -282.70401 279.88699
-325.89999 -282.146 279.88699
-325.89999 -281.58701 279.88699
-325.89999 -281.02899 279.88699
-325.89999 -280.47101 279.88699
-325.89999 -279.91299 279.88699
-325.89999 -279.35501 279.88699
-325.89999 -278.797 279.88699
-325.89999 -278.23901 279.88699
-325.89999 -277.67999 279.88699
-325.89999 -277.12201 279.88699
-325.89999 -276.564 279.88699
-325.89999 -276.00601 279.88699
-325.89999 -275.448 279.88699
-325.89999 -274.89001 279.88699
-325.89999 -274.332 279.88699
-325.89999 -273.77301 279.88699
-325.89999 -273.215 279.88699
-325.89999 -272.65701 279.88699
-325.89999 -272.099 279.88699
-325.89999 -271.54099 279.88699
-325.89999 -270.983 279.88699
-325.89999 -270.42401 279.88699
-325.89999 -269.866 279.88699
-325.89999 -269.30801 279.88699
-325.89999 -268.75 279.88699
-325.89999 -268.19199 279.88699
-325.89999 -267.634 279.88699
-325.89999 -267.07599 279.88699
-325.89999 -266.517 279.88699
-325.89999 -265.95901 279.88699
-325.89999 -265.401 279.88699
-325.89999 -264.84299 279.88699
-325.89999 -264.285 279.88699
-319.87201 -242.55 278.64301
-319.87201 -241.994 278.64301
-319.87201 -241.439 278.64301
-319.87201 -240.883 278.64301
-319.87201 -240.327 278.64301
-319.87201 -239.772 278.64301
-319.87201 -239.216 278.64301
-319.87201 -238.66 278.64301
-319.87201 -238.105 278.64301
-319.87201 -237.549 278.64301
-319.87201 -236.993 278.64301
-319.87201 -236.438 278.64301
-319.87201 -235.882 278.64301
-319.87201 -235.326 278.64301
-319.87201 -234.771 278.64301
-319.87201 -234.215 278.64301
-319.87201 -233.659 278.64301
-319.87201 -233.104 278.64301
-319.87201 -232.548 278.64301
-319.87201 -231.992 278.64301
-319.87201 -231.437 278.64301
-319.87201 -230.881 278.64301
-319.87201 -230.325 278.64301
-319.87201 -229.77 278.64301
-319.87201 -229.214 278.64301
-319.87201 -228.658 278.64301
-319.87201 -228.103 278.64301
-319.87201 -227.547 278.64301
-319.87201 -226.991 278.64301
-319.87201 -226.436 278.64301
-319.87201 -225.88 278.64301
-319.87201 -225.32401 278.64301
-319.87201 -224.769 278.64301
-319.87201 -224.213 278.64301
-319.87201 -223.657 278.64301
-319.87201 -223.10201 278.64301
-319.87201 -222.54601 278.64301
-319.87201 -221.99001 278.64301
-319.87201 -221.435 278.64301
-319.87201 -220.879 278.64301
-319.87201 -220.323 278.64301
-319.87201 -219.76801 278.64301
-319.87201 -219.21201 278.64301
-319.87201 -218.65601 278.64301
-319.87201 -218.101 278.64301
-319.87201 -217.545 278.64301
-319.87201 -216.989 278.64301
-319.87201 -216.43401 278.64301
-319.87201 -215.87801 278.64301
-319.87201 -215.32201 278.64301
-319.87201 -214.767 278.64301
-319.87201 -214.211 278.64301
-319.87201 -213.655 278.64301
-319.87201 -213.10001 278.64301
-319.87201 -212.54401 278.64301
-313.89801 -198.879 277.41
-313.89801 -198.326 277.41
-313.89801 -197.77299 277.41
-313.89801 -197.22 277.41
-313.89801 -196.66701 277.41
-313.89801 -196.11301 277.41
-313.89801 -195.56 277.41
-313.89801 -195.007 277.41
-313.89801 -194.45399 277.41
-313.89801 -193.901 277.41
-313.89801 -193.347 277.41
-313.89801 -192.79401 277.41
-313.89801 -192.241 277.41
-313.89801 -191.688 277.41
-313.89801 -191.134 277.41
-313.89801 -190.58099 277.41
-313.89801 -190.028 277.41
-313.89801 -189.47501 277.41
-313.89801 -188.922 277.41
-313.89801 -188.368 277.41
-313.89801 -187.815 277.41
-313.89801 -187.26199 277.41
-313.89801 -186.709 277.41
-313.89801 -186.15601 277.41
-313.89801 -185.60201 277.41
-313.89801 -185.049 277.41
-313.89801 -184.496 277.41
-313.89801 -183.94299 277.41
-313.89801 -183.39 277.41
-313.89801 -182.836 277.41
-313.89801 -182.283 277.41
-313.89801 -181.73 277.41
-313.89801 -181.177 277.41
-313.89801 -180.623 277.41
-313.89801 -180.07001 277.41
-313.89801 -179.517 277.41
-313.89801 -178.964 277.41
-313.89801 -178.411 277.41
-313.89801 -177.85699 277.41
-313.89801 -177.304 277.41
-313.89801 -176.75101 277.41
-313.89801 -176.198 277.41
-313.89801 -175.645 277.41
-313.89801 -175.091 277.41
-313.89801 -174.53799 277.41
-313.89801 -173.985 277.41
-313.89801 -173.43201 277.41
-313.89801 -172.87801 277.41
-313.89801 -170.112 277.41
-313.89801 -169.55901 277.41
-307.97699 -145.129 276.18701
-307.97699 -144.578 276.18701
-307.97699 -144.02699 276.18701
-307.97699 -143.47701 276.18701
-307.97699 -142.92599 276.18701
-307.97699 -142.375 276.18701
-307.97699 -141.82401 276.18701
-307.97699 -141.27299 276.18701
-307.97699 -140.72301 276.18701
-307.97699 -140.172 276.18701
-307.97699 -139.621 276.18701
-307.97699 -139.07001 276.18701
-307.97699 -138.52 276.18701
-307.97699 -137.96899 276.18701
-307.97699 -137.418 276.18701
-307.97699 -136.867 276.18701
-307.97699 -136.31599 276.18701
-307.97699 -135.76601 276.18701
-307.97699 -135.215 276.18701
-307.97699 -134.664 276.18701
-307.97699 -134.11301 276.18701
-307.97699 -133.563 276.18701
-307.97699 -133.01199 276.18701
-307.97699 -132.461 276.18701
-307.97699 -131.91 276.18701
-307.97699 -131.36 276.18701
-307.97699 -130.80901 276.18701
-307.97699 -130.258 276.18701
-307.97699 -129.707 276.18701
-307.97699 -129.15601 276.18701
-307.97699 -128.606 276.18701
-307.97699 -128.05499 276.18701
-307.97699 -127.504 276.18701
-307.97699 -126.953 276.18701
-307.97699 -126.403 276.18701
-307.97699 -125.852 276.18701
-307.97699 -125.301 276.18701
-307.97699 -124.75 276.18701
-307.97699 -124.199 276.18701
-307.97699 -123.649 276.18701
-307.97699 -123.098 276.18701
-307.97699 -122.547 276.18701
-307.97699 -121.996 276.18701
-307.97699 -121.446 276.18701
-307.97699 -120.895 276.18701
-307.97699 -120.344 276.18701
-307.97699 -119.793 276.18701
-307.97699 -119.242 276.18701
-307.97699 -118.692 276.18701
-307.97699 -118.141 276.18701
-307.97699 -117.59 276.18701
-307.97699 -117.039 276.18701
-307.97699 -116.489 276.18701
-307.97699 -115.938 276.18701
-307.97699 98.313103 276.18701
-302.10699 -86.914703 274.97601
-302.10699 -86.366302 274.97601
-302.10699 -85.817902 274.97601
-302.10699 -85.2696 274.97601
-302.10699 -84.721199 274.97601
-302.10699 -84.172897 274.97601
-302.10699 -83.624496 274.97601
-302.10699 -83.076202 274.97601
-302.10699 -82.527802 274.97601
-302.10699 -81.979401 274.97601
-302.10699 -81.431099 274.97601
-302.10699 -80.882698 274.97601
-302.10699 -80.334396 274.97601
-302.10699 -79.786003 274.97601
-302.10699 -79.237701 274.97601
-302.10699 -78.689301 274.97601
-302.10699 -78.1409 274.97601
-302.10699 -77.592598 274.97601
-302.10699 -77.044197 274.97601
-302.10699 -76.495903 274.97601
-302.10699 -75.947502 274.97601
-302.10699 -75.3992 274.97601
-302.10699 -74.8508 274.97601
-302.10699 -74.302399 274.97601
-302.10699 -73.754097 274.97601
-302.10699 -73.205704 274.97601
-302.10699 -72.657402 274.97601
-302.10699 -72.109001 274.97601
-302.10699 -71.5606 274.97601
-302.10699 -71.012299 274.97601
-302.10699 -70.463898 274.97601
-302.10699 -69.915604 274.97601
-284.80399 97.151604 271.40399
-284.80399 102.564 271.40399
-284.80399 103.105 271.40399
-284.80399 107.435 271.40399
-284.80399 107.976 271.40399
-284.80399 108.518 271.40399
-284.80399 109.059 271.40399
-284.80399 109.6 271.40399
-284.80399 110.141 271.40399
-284.80399 110.682 271.40399
-284.80399 111.224 271.40399
-284.80399 111.765 271.40399
-284.80399 112.306 271.40399
-284.80399 112.847 271.40399
-284.80399 113.389 271.40399
-284.80399 113.93 271.40399
-284.80399 114.471 271.40399
-284.80399 115.012 271.40399
-284.80399 115.554 271.40399
-284.80399 116.095 271.40399
-284.80399 116.636 271.40399
-284.80399 117.177 271.40399
-284.80399 117.719 271.40399
-284.80399 118.26 271.40399
-284.80399 118.801 271.40399
-284.80399 119.342 271.40399
-284.80399 119.883 271.40399
-284.80399 120.425 271.40399
-284.80399 120.966 271.40399
-284.80399 121.507 271.40399
-284.80399 122.048 271.40399
-284.80399 122.59 271.40399
-284.80399 123.131 271.40399
-284.80399 123.672 271.40399
-284.80399 124.213 271.40399
-284.80399 124.755 271.40399
-284.80399 125.296 271.40399
-284.80399 125.837 271.40399
-284.80399 126.378 271.40399
-284.80399 126.919 271.40399
-284.80399 127.461 271.40399
-284.80399 128.002 271.40399
-284.80399 128.543 271.40399
-284.80399 129.084 271.40399
-284.80399 129.62601 271.40399
-284.80399 130.16701 271.40399
-284.80399 130.70799 271.40399
-284.80399 131.24899 271.40399
-284.80399 131.791 271.40399
-284.80399 132.332 271.40399
-284.80399 132.873 271.40399
-284.80399 133.414 271.40399
-284.80399 133.95599 271.40399
-284.80399 134.49699 271.40399
-284.80399 135.03799 271.40399
-284.80399 135.57899 271.40399
-284.80399 136.12 271.40399
-284.80399 136.662 271.40399
-284.80399 137.203 271.40399
-284.80399 137.744 271.40399
-284.80399 138.285 271.40399
-284.80399 138.827 271.40399
-284.80399 139.368 271.40399
-284.80399 139.909 271.40399
-284.80399 140.45 271.40399
-284.80399 140.992 271.40399
-284.80399 141.533 271.40399
-284.80399 142.07401 271.40399
-284.80399 142.61501 271.40399
-284.80399 143.157 271.40399
-284.80399 143.698 271.40399
-284.80399 144.239 271.40399
-284.80399 144.78 271.40399
-284.80399 145.321 271.40399
-284.80399 145.86301 271.40399
-284.80399 146.40401 271.40399
-284.80399 146.94501 271.40399
-284.80399 147.48599 271.40399
-284.80399 148.028 271.40399
-284.80399 148.569 271.40399
-284.80399 149.11 271.40399
-284.80399 149.651 271.40399
-284.80399 150.19299 271.40399
-284.80399 150.73399 271.40399
-284.80399 151.27499 271.40399
-284.80399 151.81599 271.40399
-284.80399 152.358 271.40399
-284.80399 152.899 271.40399
-284.80399 153.44 271.40399
-284.80399 153.981 271.40399
-284.80399 154.522 271.40399
-284.80399 155.064 271.40399
-284.80399 155.605 271.40399
-284.80399 159.394 271.40399
-284.80399 159.935 271.40399
-284.80399 160.476 271.40399
-284.80399 161.017 271.40399
-284.80399 161.558 271.40399
-279.13501 182.957 270.23401
-279.13501 184.57401 270.23401
-279.13501 185.11301 270.23401
