# .PCD v.7 - Point Cloud Data file format
VERSION .7
FIELDS x y z 
SIZE 4 4 4 
TYPE F F F 
COUNT 1 1 1 
WIDTH 1977
HEIGHT 1
POINTS 1977
DATA ascii
516.651 -9.10251 102.412
516.651 -8.9385 102.412
516.651 -8.77449 102.412
516.651 -8.61048 102.412
516.651 8.44647 102.412
516.651 8.61048 102.412
516.651 8.77449 102.412
516.651 8.9385 102.412
516.651 9.10251 102.412
516.651 9.26652 102.412
516.651 9.43053 102.412
516.651 9.59454 102.412
516.651 9.75855 102.412
516.651 9.92256 102.412
516.651 10.0866 102.412
516.651 10.2506 102.412
516.651 10.4146 102.412
516.651 10.5786 102.412
517.384 -8.42382 102.138
517.384 -8.26025 102.138
517.384 -8.09669 102.138
517.384 -7.93312 102.138
517.384 -7.76955 102.138
517.384 -7.60598 102.138
517.384 -7.44241 102.138
517.384 -7.27884 102.138
517.384 -7.11527 102.138
517.384 -6.9517 102.138
517.384 -6.78813 102.138
517.384 -6.62456 102.138
517.384 6.13385 102.138
517.384 6.29742 102.138
517.384 6.46099 102.138
517.384 6.62456 102.138
517.384 6.78813 102.138
517.384 6.9517 102.138
517.384 7.11527 102.138
517.384 7.27884 102.138
517.384 7.44241 102.138
517.384 7.60598 102.138
518.839 -5.45035 101.593
518.839 -5.28765 101.593
518.839 -5.12495 101.593
518.839 -4.96225 101.593
518.839 -4.79956 101.593
518.839 -4.63686 101.593
518.839 -4.47416 101.593
518.839 -4.31147 101.593
518.839 -4.14877 101.593
518.839 -3.98607 101.593
518.839 -3.82338 101.593
518.839 -3.66068 101.593
518.839 -3.49798 101.593
518.839 -3.33529 101.593
518.839 -3.17259 101.593
518.839 -3.00989 101.593
518.839 -2.8472 101.593
518.839 -2.6845 101.593
518.839 -2.5218 101.593
518.839 -2.3591 101.593
518.839 -2.19641 101.593
518.839 -2.03371 101.593
518.839 -1.87101 101.593
518.839 -1.70832 101.593
518.839 -1.54562 101.593
518.839 -1.38292 101.593
518.839 -1.22023 101.593
518.839 -1.05753 101.593
518.839 -0.894833 101.593
518.839 -0.732136 101.593
518.839 -0.569439 101.593
518.839 -0.406742 101.593
518.839 -0.244045 101.593
518.839 -0.0813484 101.593
518.839 0.0813484 101.593
518.839 0.244045 101.593
518.839 0.406742 101.593
518.839 0.569439 101.593
518.839 0.732136 101.593
518.839 0.894833 101.593
518.839 1.05753 101.593
518.839 1.22023 101.593
518.839 1.38292 101.593
518.839 1.54562 101.593
518.839 1.70832 101.593
518.839 1.87101 101.593
518.839 2.03371 101.593
518.839 2.19641 101.593
518.839 2.3591 101.593
518.839 2.5218 101.593
518.839 2.6845 101.593
518.839 2.8472 101.593
518.839 3.00989 101.593
518.839 3.17259 101.593
518.839 3.33529 101.593
518.839 3.49798 101.593
518.839 3.66068 101.593
518.839 3.82338 101.593
518.839 3.98607 101.593
518.839 4.14877 101.593
518.839 4.31147 101.593
518.839 4.47416 101.593
518.839 4.63686 101.593
518.839 4.79956 101.593
495.604 -30.8233 97.829
496.454 -30.382 97.5465
497.299 -30.1189 97.2657
500.631 -29.0815 96.1583
500.631 -28.9079 96.1583
500.631 -28.7343 96.1583
500.631 -28.5607 96.1583
501.453 -28.8259 95.8854
501.453 -28.6527 95.8854
501.453 -28.4796 95.8854
502.269 -28.2264 95.614
502.269 -28.0537 95.614
503.081 -27.8024 95.3442
503.081 -27.6303 95.3442
503.081 29.8682 95.3442
503.081 30.0404 95.3442
503.889 -27.3808 95.0758
503.889 -27.2092 95.0758
503.889 24.4625 95.0758
503.889 24.6342 95.0758
503.889 24.8058 95.0758
503.889 28.5825 95.0758
503.889 28.7542 95.0758
504.692 -27.1328 94.809
504.692 24.2227 94.809
504.692 24.3939 94.809
504.692 24.9074 94.809
504.692 27.4752 94.809
504.692 27.6464 94.809
504.692 27.8176 94.809
505.49 -26.5448 94.5437
505.49 -26.3741 94.5437
505.49 23.4721 94.5437
505.49 23.6428 94.5437
506.284 -26.1302 94.2799
506.284 -25.96 94.2799
506.284 22.7256 94.2799
506.284 22.8959 94.2799
507.074 -25.718 94.0175
507.859 -25.3081 93.7566
507.859 -25.1388 93.7566
507.859 -24.9695 93.7566
507.859 -24.8002 93.7566
507.859 21.7531 93.7566
508.64 -25.0692 93.4971
508.64 -24.9004 93.4971
508.64 -24.7316 93.4971
508.64 -24.5628 93.4971
508.64 21.5241 93.4971
508.64 21.6929 93.4971
509.416 -24.3266 93.2391
509.416 -24.1583 93.2391
509.416 -23.9899 93.2391
509.416 20.7913 93.2391
509.416 20.9596 93.2391
509.416 21.128 93.2391
509.416 21.2963 93.2391
510.188 -23.5881 92.9825
510.188 -23.4202 92.9825
510.188 20.2304 92.9825
510.188 20.3983 92.9825
510.188 20.5662 92.9825
510.956 -23.0211 92.7273
510.956 -22.8537 92.7273
510.956 -22.6862 92.7273
510.956 -22.5188 92.7273
510.956 -22.3514 92.7273
510.956 19.3377 92.7273
510.956 19.5052 92.7273
510.956 19.6726 92.7273
511.72 -21.9563 92.4735
511.72 18.7839 92.4735
511.72 18.9509 92.4735
511.72 19.1178 92.4735
512.48 -21.8963 92.221
512.48 -21.7298 92.221
512.48 -21.5633 92.221
512.48 18.7326 92.221
512.48 18.8991 92.221
512.48 19.0656 92.221
513.235 -21.3386 91.97
513.235 -21.1725 91.97
513.235 17.6853 91.97
513.235 17.8513 91.97
513.235 18.0174 91.97
513.235 18.1834 91.97
513.235 18.3495 91.97
513.235 18.5156 91.97
513.987 -20.6182 91.7203
513.987 -20.4526 91.7203
513.987 17.1404 91.7203
513.987 17.306 91.7203
513.987 17.4716 91.7203
514.734 16.5985 91.472
515.477 -20.0127 91.225
515.477 15.4007 91.225
515.477 15.5654 91.225
515.477 15.7302 91.225
515.477 15.8949 91.225
515.477 16.0596 91.225
515.477 16.2243 91.225
515.477 16.389 91.225
516.217 -19.3017 90.9793
516.217 -19.1375 90.9793
516.217 -18.9732 90.9793
516.217 -18.8089 90.9793
516.217 15.0307 90.9793
516.217 15.195 90.9793
516.952 -18.5946 90.7349
516.952 -18.4308 90.7349
516.952 -18.2669 90.7349
516.952 14.335 90.7349
516.952 14.4989 90.7349
516.952 14.6627 90.7349
517.683 -17.2377 90.4919
517.683 -17.0743 90.4919
517.683 -16.9109 90.4919
517.683 -16.7475 90.4919
517.683 -16.5841 90.4919
517.683 -16.4207 90.4919
517.683 -16.2573 90.4919
517.683 -16.0939 90.4919
517.683 12.336 90.4919
517.683 12.4993 90.4919
517.683 12.6627 90.4919
517.683 12.8261 90.4919
517.683 12.9895 90.4919
517.683 13.1529 90.4919
517.683 13.3163 90.4919
517.683 13.4797 90.4919
518.411 -16.0509 90.2502
518.411 -15.888 90.2502
518.411 -15.725 90.2502
518.411 -15.5621 90.2502
519.134 -15.8456 90.0097
519.134 -15.6831 90.0097
519.134 -15.5206 90.0097
519.134 -15.3581 90.0097
519.134 -15.1956 90.0097
519.134 -15.0331 90.0097
519.134 -14.8705 90.0097
519.134 -14.708 90.0097
519.134 -14.5455 90.0097
519.134 -14.383 90.0097
519.134 -14.2205 90.0097
519.134 -14.0579 90.0097
519.134 -13.8954 90.0097
519.134 10.9701 90.0097
519.134 11.1326 90.0097
519.134 11.2951 90.0097
519.134 11.4576 90.0097
519.854 -13.3722 89.7706
519.854 -13.2101 89.7706
519.854 -13.0481 89.7706
519.854 -12.886 89.7706
519.854 -12.7239 89.7706
519.854 -12.5618 89.7706
519.854 -12.3997 89.7706
519.854 -11.5893 89.7706
519.854 -11.4272 89.7706
519.854 -11.2651 89.7706
519.854 -10.7788 89.7706
519.854 -10.6167 89.7706
519.854 -10.4547 89.7706
519.854 9.48213 89.7706
519.854 9.64421 89.7706
520.57 -10.2653 89.5326
520.57 -10.1036 89.5326
520.57 -9.94197 89.5326
520.57 -9.78031 89.5326
520.57 -9.61865 89.5326
520.57 8.48705 89.5326
521.282 -9.27077 89.296
521.282 -9.10954 89.296
521.282 -8.94831 89.296
521.282 -8.78708 89.296
521.282 -8.62585 89.296
521.282 -8.46462 89.296
521.282 -8.30339 89.296
521.282 -8.14215 89.296
521.282 -7.98092 89.296
521.282 -7.81969 89.296
521.282 -7.65846 89.296
521.282 -7.49723 89.296
521.282 -7.336 89.296
521.282 -7.17477 89.296
521.282 -7.01354 89.296
521.282 -6.85231 89.296
521.282 -6.69108 89.296
521.282 -6.52985 89.296
521.282 -6.36862 89.296
521.282 -6.20739 89.296
521.282 -6.04615 89.296
521.282 -5.88492 89.296
521.282 5.88492 89.296
521.282 6.04615 89.296
521.282 6.20739 89.296
521.282 6.36862 89.296
521.282 6.52985 89.296
521.282 6.69108 89.296
521.282 6.85231 89.296
521.282 7.01354 89.296
521.282 7.17477 89.296
521.282 7.336 89.296
521.99 -5.86941 89.0606
521.99 -5.7086 89.0606
521.99 5.38699 89.0606
521.99 5.5478 89.0606
521.99 5.7086 89.0606
522.695 -5.69359 88.8264
522.695 -5.53321 88.8264
522.695 -5.37283 88.8264
522.695 -5.21245 88.8264
522.695 -4.89168 88.8264
522.695 -4.7313 88.8264
522.695 4.08977 88.8264
522.695 4.41053 88.8264
522.695 4.57091 88.8264
522.695 4.7313 88.8264
522.695 4.89168 88.8264
522.695 5.05206 88.8264
522.695 5.21245 88.8264
522.695 5.37283 88.8264
522.695 5.53321 88.8264
523.396 -4.55893 88.5935
523.396 -4.39897 88.5935
523.396 -4.239 88.5935
523.396 -4.07904 88.5935
523.396 -3.91908 88.5935
523.396 -3.75912 88.5935
523.396 -3.59915 88.5935
523.396 -3.43919 88.5935
523.396 -3.27923 88.5935
523.396 -3.11927 88.5935
523.396 -2.9593 88.5935
523.396 -2.79934 88.5935
523.396 -2.63938 88.5935
523.396 -2.47942 88.5935
523.396 -2.31945 88.5935
523.396 -2.15949 88.5935
523.396 -1.99953 88.5935
523.396 1.83957 88.5935
523.396 1.99953 88.5935
523.396 2.15949 88.5935
523.396 2.31945 88.5935
523.396 2.47942 88.5935
523.396 2.63938 88.5935
523.396 2.79934 88.5935
523.396 2.9593 88.5935
523.396 3.11927 88.5935
523.396 3.27923 88.5935
523.396 3.43919 88.5935
524.093 -1.83476 88.3618
524.093 -1.67521 88.3618
524.093 -1.51567 88.3618
524.093 -1.35612 88.3618
524.093 -1.19658 88.3618
524.093 -0.717948 88.3618
524.093 -0.558404 88.3618
524.093 -0.39886 88.3618
524.093 -0.239316 88.3618
524.093 -0.079772 88.3618
524.093 0.079772 88.3618
524.093 0.239316 88.3618
524.093 0.39886 88.3618
524.093 0.558404 88.3618
524.093 0.717948 88.3618
524.093 0.877492 88.3618
524.093 1.03704 88.3618
524.093 1.19658 88.3618
524.093 1.35612 88.3618
524.093 1.51567 88.3618
524.093 1.67521 88.3618
524.093 1.83476 88.3618
495.952 31.8454 85.2589
495.952 32.0218 85.2589
495.952 32.5511 85.2589
496.8 28.411 85.0131
496.8 28.587 85.0131
497.643 28.1539 84.7686
497.643 28.3293 84.7686
497.643 31.3114 84.7686
498.482 30.522 84.5255
498.482 30.6969 84.5255
499.315 27.1209 84.2838
500.144 26.6957 84.0435
500.968 -31.3022 83.8046
500.968 26.0996 83.8046
500.968 26.273 83.8046
500.968 26.4464 83.8046
500.968 26.6198 83.8046
501.787 -31.2134 83.567
501.787 -31.0405 83.567
501.787 26.0256 83.567
501.787 26.1985 83.567
502.602 -30.263 83.3308
502.602 -30.0905 83.3308
502.602 25.4347 83.3308
502.602 25.6071 83.3308
503.412 -29.8338 83.0959
503.412 -29.6618 83.0959
503.412 -29.4899 83.0959
503.412 24.8471 83.0959
503.412 25.0191 83.0959
503.412 25.1911 83.0959
504.218 -28.7211 82.8623
504.218 -28.5496 82.8623
504.218 -28.3782 82.8623
505.019 -28.1276 82.6301
505.019 24.1949 82.6301
505.019 24.3659 82.6301
505.816 -27.708 82.3991
505.816 -27.5375 82.3991
505.816 -27.367 82.3991
505.816 23.6157 82.3991
505.816 23.7862 82.3991
505.816 23.9567 82.3991
506.608 -26.6105 82.1694
506.608 -26.4405 82.1694
506.608 -26.1004 82.1694
506.608 -25.9304 82.1694
506.608 -25.7604 82.1694
506.608 -25.5903 82.1694
506.608 -25.4203 82.1694
506.608 23.2098 82.1694
506.608 23.3799 82.1694
507.396 -24.8409 81.941
507.396 -24.6714 81.941
507.396 -24.5018 81.941
508.179 -23.9266 81.7139
508.179 -23.7575 81.7139
508.179 -23.5884 81.7139
508.179 -23.4193 81.7139
508.179 -23.2502 81.7139
508.179 -23.0811 81.7139
508.179 -22.9121 81.7139
508.179 -22.743 81.7139
508.179 -22.5739 81.7139
508.179 -22.4048 81.7139
508.179 -22.2357 81.7139
508.179 -22.0666 81.7139
508.179 -21.8975 81.7139
508.179 -21.7284 81.7139
508.179 -21.5593 81.7139
508.179 -21.3902 81.7139
508.179 -21.2211 81.7139
508.179 -21.052 81.7139
508.179 -20.8829 81.7139
508.179 -20.7139 81.7139
508.179 -20.5448 81.7139
508.179 -20.3757 81.7139
508.179 -20.2066 81.7139
508.179 -20.0375 81.7139
508.179 22.5739 81.7139
508.958 -23.8605 81.488
508.958 -23.6918 81.488
508.958 -23.5232 81.488
508.958 -23.3546 81.488
508.958 -23.186 81.488
508.958 -23.0173 81.488
508.958 -22.8487 81.488
508.958 -22.6801 81.488
508.958 -22.5115 81.488
508.958 -22.3428 81.488
508.958 -22.1742 81.488
508.958 -22.0056 81.488
508.958 -21.837 81.488
508.958 -21.6683 81.488
508.958 -21.4997 81.488
508.958 -21.3311 81.488
508.958 -21.1625 81.488
508.958 -20.9938 81.488
508.958 -20.8252 81.488
508.958 -20.6566 81.488
508.958 -20.488 81.488
508.958 -20.3193 81.488
508.958 -20.1507 81.488
508.958 -19.9821 81.488
508.958 -19.8135 81.488
508.958 -19.6448 81.488
508.958 22.3428 81.488
509.733 -18.2454 81.2633
509.733 -18.0772 81.2633
509.733 -17.9091 81.2633
509.733 -17.7409 81.2633
509.733 21.4404 81.2633
509.733 21.6086 81.2633
510.503 -17.3568 81.0399
510.503 -17.1891 81.0399
510.503 21.0461 81.0399
510.503 21.2138 81.0399
511.269 -15.804 80.8177
511.269 -15.4695 80.8177
511.269 20.1522 80.8177
511.269 20.3195 80.8177
511.269 20.4867 80.8177
512.789 -14.8862 80.377
512.789 -14.7199 80.377
512.789 -14.5536 80.377
512.789 18.878 80.377
512.789 19.0444 80.377
512.789 19.2107 80.377
512.789 19.377 80.377
513.543 -14.0164 80.1585
513.543 17.4997 80.1585
513.543 17.6656 80.1585
513.543 17.8315 80.1585
513.543 17.9973 80.1585
513.543 18.1632 80.1585
513.543 18.3291 80.1585
513.543 18.495 80.1585
513.543 18.6608 80.1585
514.293 2.7295 79.9411
514.293 16.956 79.9411
515.039 -13.2806 79.7249
515.039 -13.1157 79.7249
515.039 -2.22719 79.7249
515.039 -1.56728 79.7249
515.039 -1.4023 79.7249
515.039 -1.23733 79.7249
515.039 -1.07235 79.7249
515.039 -0.907372 79.7249
515.039 -0.412442 79.7249
515.039 -0.0824884 79.7249
515.039 0.0824884 79.7249
515.039 0.247465 79.7249
515.039 0.412442 79.7249
515.039 0.577419 79.7249
515.039 0.742396 79.7249
515.039 0.907372 79.7249
515.039 1.07235 79.7249
515.039 1.23733 79.7249
515.039 1.4023 79.7249
515.039 1.56728 79.7249
515.039 1.73226 79.7249
515.039 1.89723 79.7249
515.039 2.06221 79.7249
515.039 2.22719 79.7249
515.039 2.39216 79.7249
515.039 2.55714 79.7249
515.039 3.547 79.7249
515.039 3.71198 79.7249
515.039 3.87695 79.7249
515.039 4.04193 79.7249
515.039 4.20691 79.7249
515.039 4.37189 79.7249
515.039 4.53686 79.7249
515.039 15.9203 79.7249
515.039 16.0852 79.7249
515.039 16.2502 79.7249
515.039 16.4152 79.7249
515.78 -13.2448 79.5098
515.78 -13.0803 79.5098
515.78 -12.9157 79.5098
515.78 -2.71478 79.5098
515.78 -2.22118 79.5098
515.78 -2.05665 79.5098
515.78 -1.89212 79.5098
515.78 -1.72758 79.5098
515.78 -1.56305 79.5098
515.78 -1.39852 79.5098
515.78 -1.23399 79.5098
515.78 -1.06946 79.5098
515.78 -0.904925 79.5098
515.78 -0.740393 79.5098
515.78 -0.575861 79.5098
515.78 -0.41133 79.5098
515.78 -0.246798 79.5098
515.78 -0.0822659 79.5098
515.78 0.0822659 79.5098
515.78 0.246798 79.5098
515.78 0.41133 79.5098
515.78 0.575861 79.5098
515.78 0.740393 79.5098
515.78 0.904925 79.5098
515.78 1.06946 79.5098
515.78 1.23399 79.5098
515.78 1.39852 79.5098
515.78 1.56305 79.5098
515.78 1.72758 79.5098
515.78 1.89212 79.5098
515.78 2.05665 79.5098
515.78 2.22118 79.5098
515.78 2.38571 79.5098
515.78 3.70197 79.5098
515.78 3.8665 79.5098
515.78 4.03103 79.5098
515.78 4.19556 79.5098
515.78 4.36009 79.5098
515.78 4.52463 79.5098
515.78 4.68916 79.5098
515.78 4.85369 79.5098
515.78 5.01822 79.5098
515.78 5.18275 79.5098
515.78 12.9157 79.5098
515.78 13.0803 79.5098
515.78 13.2448 79.5098
515.78 13.4093 79.5098
515.78 13.5739 79.5098
515.78 14.7256 79.5098
515.78 14.8901 79.5098
515.78 15.0547 79.5098
515.78 15.2192 79.5098
515.78 15.3837 79.5098
515.78 15.5483 79.5098
515.78 15.7128 79.5098
515.78 15.8773 79.5098
515.78 16.0419 79.5098
515.78 16.2064 79.5098
516.518 -12.881 79.2959
516.518 -3.36383 79.2959
516.518 -3.19974 79.2959
516.518 -3.03565 79.2959
516.518 -2.87156 79.2959
516.518 -2.70747 79.2959
516.518 5.16881 79.2959
516.518 5.3329 79.2959
516.518 5.49699 79.2959
516.518 5.66108 79.2959
516.518 5.82517 79.2959
516.518 5.98926 79.2959
516.518 6.15335 79.2959
516.518 6.31744 79.2959
516.518 6.48152 79.2959
516.518 12.0606 79.2959
516.518 12.2246 79.2959
516.518 12.3887 79.2959
516.518 12.5528 79.2959
516.518 12.7169 79.2959
516.518 12.881 79.2959
516.518 13.0451 79.2959
516.518 13.2092 79.2959
516.518 13.3733 79.2959
516.518 13.5374 79.2959
517.252 -4.50035 79.0832
517.252 -4.3367 79.0832
517.252 -4.17305 79.0832
517.252 -3.51845 79.0832
517.252 6.95508 79.0832
517.252 7.11873 79.0832
517.252 7.28238 79.0832
517.252 7.44603 79.0832
517.252 8.10063 79.0832
517.252 8.26428 79.0832
517.252 8.75522 79.0832
517.252 8.91887 79.0832
517.252 9.08252 79.0832
517.252 9.24617 79.0832
517.252 9.40982 79.0832
517.252 9.73712 79.0832
517.252 9.90077 79.0832
517.252 10.0644 79.0832
517.252 10.2281 79.0832
517.252 10.3917 79.0832
517.252 10.5554 79.0832
517.252 10.719 79.0832
517.252 10.8827 79.0832
517.252 11.0463 79.0832
517.252 11.21 79.0832
517.252 11.3736 79.0832
517.252 11.5373 79.0832
517.981 -12.1592 78.8716
517.981 -11.996 78.8716
517.981 -5.794 78.8716
517.981 -5.63079 78.8716
517.981 -5.46757 78.8716
517.981 -5.30436 78.8716
517.981 -5.14115 78.8716
517.981 -4.97794 78.8716
518.707 -11.964 78.6612
518.707 -11.8012 78.6612
518.707 -6.59241 78.6612
518.707 -6.42964 78.6612
518.707 -6.26686 78.6612
518.707 -6.10409 78.6612
518.707 -5.94131 78.6612
519.429 -11.7698 78.4518
519.429 -11.6075 78.4518
519.429 -11.4451 78.4518
519.429 -11.2828 78.4518
519.429 -11.1205 78.4518
519.429 -7.22424 78.4518
519.429 -7.0619 78.4518
519.429 -6.73721 78.4518
519.429 -6.57487 78.4518
519.429 -6.41253 78.4518
519.429 -6.25018 78.4518
519.429 -6.08784 78.4518
520.147 -11.0909 78.2436
520.147 -10.929 78.2436
520.147 -10.7671 78.2436
520.147 -10.6052 78.2436
520.147 -10.4433 78.2436
520.147 -8.50036 78.2436
520.147 -8.33844 78.2436
520.147 -8.17653 78.2436
520.147 -8.01462 78.2436
520.147 -7.85271 78.2436
520.147 -7.6908 78.2436
520.147 -7.36697 78.2436
520.147 -7.20506 78.2436
520.862 -9.60823 78.0364
520.862 -9.44675 78.0364
520.862 -9.28527 78.0364
520.862 -9.12378 78.0364
520.862 -8.9623 78.0364
481.131 40.3074 76.4743
483.921 36.0867 75.7836
483.921 37.9232 75.7836
483.921 38.1068 75.7836
486.661 -34.3077 75.1053
487.563 -33.8427 74.8819
487.563 34.5685 74.8819
487.563 34.75 74.8819
488.46 -33.1995 74.6598
488.46 32.114 74.6598
488.46 32.2949 74.6598
489.352 -33.1014 74.439
489.352 31.6583 74.439
489.352 31.8386 74.439
489.352 32.019 74.439
489.352 32.1994 74.439
489.352 32.921 74.439
489.352 33.1014 74.439
489.352 33.2818 74.439
489.352 34.0033 74.439
490.238 -32.2843 74.2195
490.238 -32.1045 74.2195
490.238 31.2052 74.2195
490.238 31.3851 74.2195
490.238 32.6441 74.2195
490.238 33.3635 74.2195
490.238 33.5433 74.2195
490.238 33.7232 74.2195
491.119 -31.8308 74.0013
491.119 30.9341 74.0013
491.996 -31.3799 73.7844
491.996 -31.2011 73.7844
491.996 30.3071 73.7844
493.732 29.7749 73.3544
494.593 -30.0429 73.1412
494.593 29.3339 73.1412
494.593 29.5111 73.1412
495.449 -29.7791 72.9293
495.449 -29.6024 72.9293
495.449 29.0722 72.9293
496.3 -29.3406 72.7186
496.3 28.6357 72.7186
497.146 -29.0804 72.5092
497.146 28.2018 72.5092
497.987 -28.9969 72.3009
497.987 -28.8217 72.3009
497.987 27.9456 72.3009
498.824 -28.5644 72.0938
498.824 -28.3897 72.0938
498.824 27.3415 72.0938
499.655 -28.1344 71.8879
499.655 -27.9602 71.8879
499.655 -27.786 71.8879
499.655 -27.6118 71.8879
499.655 26.7408 71.8879
499.655 26.915 71.8879
500.482 -27.3595 71.6832
501.304 -26.9353 71.4797
501.304 -26.7621 71.4797
501.304 -26.5889 71.4797
501.304 -26.4157 71.4797
501.304 25.7228 71.4797
502.121 -26.6863 71.2773
502.121 -26.5136 71.2773
502.121 -26.3409 71.2773
502.121 -26.1682 71.2773
502.121 25.4772 71.2773
502.121 25.65 71.2773
502.934 -25.0608 71.076
502.934 -24.8886 71.076
502.934 -24.7164 71.076
502.934 -24.5441 71.076
502.934 24.7164 71.076
502.934 24.8886 71.076
503.743 -24.1315 70.8759
503.743 -23.9597 70.8759
503.743 -23.788 70.8759
503.743 -23.6162 70.8759
503.743 -23.4445 70.8759
503.743 -23.2727 70.8759
503.743 -23.101 70.8759
503.743 -22.9292 70.8759
503.743 -22.7575 70.8759
503.743 -22.5857 70.8759
503.743 -22.414 70.8759
503.743 24.1315 70.8759
503.743 24.3033 70.8759
504.546 -21.6659 70.6769
504.546 -21.4947 70.6769
504.546 -21.3234 70.6769
504.546 -21.1521 70.6769
504.546 -20.9808 70.6769
504.546 -20.8096 70.6769
504.546 -20.6383 70.6769
504.546 -20.467 70.6769
504.546 -20.2958 70.6769
504.546 -16.699 70.6769
504.546 -16.5278 70.6769
504.546 23.7212 70.6769
505.346 -20.5805 70.479
505.346 -20.4097 70.479
505.346 -20.2389 70.479
505.346 -20.0681 70.479
505.346 -19.8973 70.479
505.346 -19.7266 70.479
505.346 -19.5558 70.479
505.346 -19.385 70.479
505.346 -19.2142 70.479
505.346 -19.0434 70.479
505.346 -18.8726 70.479
505.346 -18.7018 70.479
505.346 -18.531 70.479
505.346 -18.3602 70.479
505.346 -18.1894 70.479
505.346 -17.677 70.479
505.346 -17.5062 70.479
505.346 -17.3355 70.479
505.346 -17.1647 70.479
505.346 -16.4815 70.479
505.346 23.1424 70.479
505.346 23.3132 70.479
505.346 23.484 70.479
506.14 -17.6277 70.2822
506.14 -17.4574 70.2822
506.14 -17.2871 70.2822
506.14 -17.1167 70.2822
506.14 22.2262 70.2822
506.14 22.3965 70.2822
506.14 22.5668 70.2822
506.931 21.485 70.0865
506.931 21.6548 70.0865
506.931 21.8246 70.0865
506.931 21.9945 70.0865
507.717 19.901 69.8919
507.717 20.0703 69.8919
507.717 20.2397 69.8919
507.717 20.4091 69.8919
507.717 20.5785 69.8919
507.717 20.7478 69.8919
508.498 19.1703 69.6984
508.498 19.3392 69.6984
508.498 19.5081 69.6984
509.276 19.1173 69.506
509.276 19.2858 69.506
510.049 17.385 69.3146
510.049 17.553 69.3146
510.049 17.7209 69.3146
510.049 17.8889 69.3146
510.049 18.0569 69.3146
510.817 16.8347 69.1242
510.817 17.0022 69.1242
511.582 14.784 68.9349
511.582 14.9511 68.9349
511.582 15.1181 68.9349
511.582 15.2852 68.9349
511.582 15.4522 68.9349
511.582 15.6193 68.9349
511.582 15.7863 68.9349
512.342 0.0832973 68.7467
512.342 0.916271 68.7467
512.342 1.08287 68.7467
512.342 1.24946 68.7467
512.342 1.41605 68.7467
512.342 14.2438 68.7467
513.098 -0.0830705 68.5594
513.098 0.0830705 68.5594
513.098 0.249211 68.5594
513.098 0.415352 68.5594
513.098 0.581493 68.5594
513.098 0.747634 68.5594
513.098 0.913775 68.5594
513.098 1.07992 68.5594
513.098 1.24606 68.5594
513.098 1.4122 68.5594
513.098 1.57834 68.5594
513.098 1.74448 68.5594
513.098 1.91062 68.5594
513.098 2.07676 68.5594
513.098 2.2429 68.5594
513.098 2.40904 68.5594
513.098 2.57518 68.5594
513.098 2.74132 68.5594
513.098 2.90747 68.5594
513.098 3.07361 68.5594
513.098 3.23975 68.5594
513.098 13.5405 68.5594
513.098 13.7066 68.5594
513.098 13.8728 68.5594
513.098 14.0389 68.5594
513.098 14.205 68.5594
513.851 -0.911293 68.3732
513.851 -0.745603 68.3732
513.851 -0.579914 68.3732
513.851 4.0594 68.3732
513.851 4.22509 68.3732
513.851 4.39078 68.3732
513.851 4.55646 68.3732
513.851 4.72215 68.3732
513.851 4.88784 68.3732
513.851 5.05353 68.3732
513.851 5.21922 68.3732
513.851 5.38491 68.3732
513.851 5.5506 68.3732
513.851 5.71629 68.3732
513.851 5.88198 68.3732
513.851 6.04767 68.3732
513.851 6.21336 68.3732
513.851 6.37905 68.3732
513.851 6.54474 68.3732
513.851 6.71043 68.3732
513.851 6.87612 68.3732
513.851 7.04181 68.3732
513.851 7.2075 68.3732
513.851 7.37319 68.3732
513.851 7.53888 68.3732
513.851 7.70457 68.3732
513.851 7.87026 68.3732
513.851 8.03595 68.3732
513.851 8.20164 68.3732
513.851 8.36733 68.3732
513.851 8.53302 68.3732
513.851 8.69871 68.3732
513.851 8.8644 68.3732
513.851 9.03008 68.3732
513.851 9.19577 68.3732
513.851 9.36146 68.3732
513.851 9.52715 68.3732
513.851 9.69284 68.3732
513.851 9.85853 68.3732
513.851 10.0242 68.3732
513.851 10.1899 68.3732
513.851 10.3556 68.3732
513.851 10.5213 68.3732
513.851 10.687 68.3732
513.851 10.8527 68.3732
513.851 11.184 68.3732
513.851 11.3497 68.3732
513.851 11.5154 68.3732
513.851 11.6811 68.3732
513.851 11.8468 68.3732
513.851 12.0125 68.3732
513.851 12.1782 68.3732
513.851 12.3439 68.3732
513.851 12.5096 68.3732
514.599 -1.07407 68.188
515.343 -1.89514 68.0038
515.343 -1.73034 68.0038
515.343 -1.56555 68.0038
516.083 -2.21873 67.8205
516.083 -2.05438 67.8205
516.083 -1.89003 67.8205
516.083 -1.72568 67.8205
516.819 -2.37668 67.6383
517.551 -3.02419 67.457
517.551 -2.86072 67.457
517.551 -2.69725 67.457
517.551 -2.53378 67.457
518.279 -3.34217 67.2768
518.279 -3.17914 67.2768
519.003 -3.65846 67.0974
519.003 -3.49586 67.0974
519.724 -4.45956 66.9191
519.724 -4.29739 66.9191
519.724 -4.13523 66.9191
519.724 -3.97306 66.9191
519.724 -3.8109 66.9191
519.724 -3.64873 66.9191
520.44 -4.60947 66.7416
520.44 -4.44774 66.7416
521.153 -5.40382 66.5651
521.153 -5.24251 66.5651
521.153 -5.08121 66.5651
521.153 -4.9199 66.5651
521.153 -4.75859 66.5651
521.862 -6.19398 66.3896
521.862 -6.0331 66.3896
521.862 -5.87222 66.3896
522.567 -6.49861 66.2149
523.269 -6.80164 66.0412
523.269 -6.6416 66.0412
523.269 -6.48156 66.0412
523.967 -7.42232 65.8684
523.967 -7.2627 65.8684
523.967 -7.10308 65.8684
524.661 -7.72135 65.6965
524.661 -7.56215 65.6965
525.352 -8.01883 65.5255
525.352 -7.86004 65.5255
526.039 -8.31476 65.3554
526.723 -8.4512 65.1861
527.403 -8.74449 65.0177
528.079 -9.03626 64.8502
528.079 -8.87911 64.8502
528.752 -14.9695 64.6836
528.752 -14.8127 64.6836
528.752 -14.656 64.6836
528.752 -14.4992 64.6836
528.752 -14.3425 64.6836
528.752 -10.1103 64.6836
528.752 -9.95353 64.6836
528.752 -9.79679 64.6836
528.752 -9.64004 64.6836
529.422 -14.9311 64.5178
529.422 -14.7748 64.5178
529.422 -14.6184 64.5178
529.422 -14.1494 64.5178
529.422 -10.5534 64.5178
529.422 -10.3971 64.5178
529.422 -10.2407 64.5178
529.422 -9.92802 64.5178
530.088 -14.1132 64.3529
530.088 -13.9573 64.3529
530.088 -13.8013 64.3529
530.088 -10.6824 64.3529
530.088 -10.5264 64.3529
530.088 -10.3705 64.3529
530.751 -12.9884 64.1888
530.751 -12.8328 64.1888
530.751 -12.6773 64.1888
530.751 -12.5217 64.1888
530.751 -12.3662 64.1888
530.751 -12.2106 64.1888
530.751 -12.0551 64.1888
530.751 -11.8995 64.1888
530.751 -11.744 64.1888
480.576 36.1098 63.5063
481.515 35.8151 63.3136
481.515 36.0002 63.3136
481.515 36.1853 63.3136
481.515 36.5555 63.3136
481.515 36.7406 63.3136
482.448 35.1532 63.1221
482.448 35.3377 63.1221
482.448 35.5222 63.1221
484.298 34.2081 62.7425
484.298 34.3915 62.7425
486.125 33.092 62.3674
487.031 -35.5383 62.1816
487.931 -35.2515 61.9968
487.931 31.9891 61.9968
488.826 -34.9663 61.8132
488.826 30.9908 61.8132
488.826 31.1715 61.8132
489.715 -34.8631 61.6306
489.715 -34.6829 61.6306
489.715 30.7191 61.6306
489.715 30.8993 61.6306
490.6 -34.4011 61.4491
490.6 -34.2215 61.4491
490.6 30.449 61.4491
491.479 -33.7628 61.2687
492.353 -33.4853 61.0893
492.353 -33.3067 61.0893
493.222 -32.6753 60.911
494.085 -32.4027 60.7337
494.085 -32.2251 60.7337
494.085 -32.0476 60.7337
494.085 29.0292 60.7337
494.944 -32.1316 60.5574
494.944 -31.9546 60.5574
494.944 -31.7775 60.5574
494.944 -31.6005 60.5574
495.798 -31.3325 60.3822
495.798 -31.156 60.3822
495.798 -30.9795 60.3822
495.798 28.3317 60.3822
495.798 28.5082 60.3822
496.647 -30.5381 60.2079
496.647 -30.362 60.2079
496.647 -30.186 60.2079
496.647 27.8979 60.2079
497.491 -29.3972 60.0347
497.491 -29.2217 60.0347
498.33 -28.9628 59.8625
498.33 27.0378 59.8625
498.33 27.2128 59.8625
499.164 -28.531 59.6912
499.164 -28.3565 59.6912
499.164 -28.182 59.6912
499.994 -27.2316 59.521
499.994 -27.0576 59.521
499.994 -26.8836 59.521
499.994 -26.7095 59.521
499.994 -26.5355 59.521
499.994 26.1875 59.521
499.994 26.3615 59.521
500.819 -26.2866 59.3517
500.819 -26.1131 59.3517
500.819 -25.9395 59.3517
501.639 -25.3469 59.1833
501.639 -25.1739 59.1833
501.639 -24.4818 59.1833
501.639 25.3469 59.1833
502.455 -25.1027 59.0159
502.455 -24.9302 59.0159
502.455 -24.7576 59.0159
502.455 -24.5851 59.0159
502.455 -24.4126 59.0159
502.455 25.1027 59.0159
503.266 -24.1717 58.8495
503.266 -23.9997 58.8495
503.266 -23.8276 58.8495
503.266 -23.6556 58.8495
503.266 24.5158 58.8495
503.266 24.6878 58.8495
504.072 -23.4175 58.684
504.072 -23.2459 58.684
504.874 -22.1543 58.5194
504.874 -21.9832 58.5194
504.874 -21.8121 58.5194
504.874 23.3518 58.5194
504.874 23.5229 58.5194
505.671 -21.7511 58.3557
505.671 -21.5805 58.3557
505.671 23.1159 58.3557
506.464 -21.01 58.193
506.464 -20.8399 58.193
506.464 -20.6697 58.193
506.464 22.2008 58.193
506.464 22.371 58.193
506.464 22.5411 58.193
507.253 -20.4426 58.0312
507.253 -20.273 58.0312
507.253 -20.1033 58.0312
507.253 21.4605 58.0312
507.253 21.6302 58.0312
507.253 21.7998 58.0312
508.817 19.3173 57.7102
508.817 19.486 57.7102
508.817 19.6547 57.7102
508.817 19.8234 57.7102
508.817 19.9921 57.7102
508.817 20.1608 57.7102
508.817 20.3295 57.7102
508.817 20.4982 57.7102
509.592 18.9275 57.551
509.592 19.0958 57.551
509.592 19.264 57.551
509.592 19.4322 57.551
509.592 19.6005 57.551
509.592 19.7687 57.551
509.592 19.937 57.551
509.592 20.1052 57.551
509.592 20.2735 57.551
510.364 17.3654 57.3927
510.364 17.5332 57.3927
510.364 17.701 57.3927
510.364 17.8688 57.3927
510.364 18.0365 57.3927
510.364 18.2043 57.3927
510.364 18.3721 57.3927
510.364 18.5399 57.3927
510.364 18.7077 57.3927
511.131 15.9792 57.2353
511.131 16.1465 57.2353
511.131 16.3139 57.2353
511.131 16.4812 57.2353
511.131 16.6485 57.2353
511.131 16.8158 57.2353
511.131 16.9831 57.2353
511.131 17.1505 57.2353
511.894 14.1 57.0787
511.894 14.2669 57.0787
511.894 14.4337 57.0787
511.894 14.6006 57.0787
511.894 14.7675 57.0787
511.894 14.9343 57.0787
511.894 15.1012 57.0787
511.894 15.268 57.0787
511.894 15.4349 57.0787
512.652 10.4005 56.923
512.652 10.5669 56.923
512.652 10.7334 56.923
512.652 10.8998 56.923
512.652 11.0662 56.923
512.652 11.2326 56.923
512.652 11.399 56.923
512.652 11.5654 56.923
512.652 11.7318 56.923
512.652 11.8982 56.923
512.652 12.0646 56.923
512.652 12.231 56.923
512.652 12.3974 56.923
512.652 12.5639 56.923
512.652 12.7303 56.923
513.407 10.2063 56.7681
513.407 10.3722 56.7681
513.407 10.5382 56.7681
513.407 10.7042 56.7681
513.407 10.8701 56.7681
513.407 11.0361 56.7681
513.407 11.202 56.7681
513.407 11.368 56.7681
513.407 11.5339 56.7681
513.407 11.6999 56.7681
513.407 11.8658 56.7681
513.407 12.0318 56.7681
513.407 12.1978 56.7681
513.407 12.3637 56.7681
513.407 12.5297 56.7681
513.407 12.6956 56.7681
514.157 7.1995 56.6141
514.157 7.365 56.6141
514.157 7.53051 56.6141
514.157 7.69601 56.6141
514.157 7.86152 56.6141
514.157 8.02702 56.6141
514.157 8.19253 56.6141
514.157 8.35803 56.6141
514.157 8.52354 56.6141
514.157 8.85455 56.6141
514.157 9.02006 56.6141
514.157 9.18556 56.6141
514.157 9.35107 56.6141
514.904 1.73311 56.4609
514.904 1.89816 56.4609
514.904 2.06322 56.4609
514.904 2.22828 56.4609
514.904 2.39334 56.4609
514.904 2.5584 56.4609
514.904 2.72345 56.4609
514.904 2.88851 56.4609
514.904 3.05357 56.4609
514.904 3.21863 56.4609
514.904 3.38368 56.4609
514.904 3.54874 56.4609
514.904 3.7138 56.4609
514.904 3.87886 56.4609
514.904 4.04392 56.4609
514.904 4.20897 56.4609
514.904 4.37403 56.4609
515.646 0.246919 56.3085
515.646 0.411531 56.3085
515.646 0.576143 56.3085
515.646 0.740756 56.3085
515.646 0.905368 56.3085
515.646 1.06998 56.3085
515.646 1.23459 56.3085
515.646 1.39921 56.3085
515.646 1.56382 56.3085
516.384 40.6319 56.157
516.384 40.7961 56.157
517.119 -2.04661 56.0063
517.119 -1.88288 56.0063
517.119 -1.71915 56.0063
517.119 40.3591 56.0063
517.119 40.5229 56.0063
517.119 40.6866 56.0063
517.849 -2.20442 55.8564
517.849 -2.04113 55.8564
517.849 39.2713 55.8564
517.849 39.4346 55.8564
517.849 39.5979 55.8564
517.849 39.7612 55.8564
520.017 33.6128 55.4114
520.017 33.7748 55.4114
520.017 33.9368 55.4114
520.017 34.0988 55.4114
520.017 34.2608 55.4114
520.017 34.4228 55.4114
520.017 34.5848 55.4114
520.017 34.7468 55.4114
520.017 35.3947 55.4114
520.017 35.5567 55.4114
520.017 37.8246 55.4114
520.017 38.1485 55.4114
520.732 33.0391 55.2646
520.732 35.1394 55.2646
520.732 35.301 55.2646
520.732 35.4625 55.2646
520.732 35.6241 55.2646
520.732 35.7857 55.2646
520.732 35.9472 55.2646
520.732 36.1088 55.2646
520.732 36.2703 55.2646
520.732 36.4319 55.2646
520.732 36.5935 55.2646
520.732 36.755 55.2646
520.732 36.9166 55.2646
520.732 37.0781 55.2646
520.732 37.5628 55.2646
520.732 37.7244 55.2646
520.732 37.8859 55.2646
520.732 38.3706 55.2646
520.732 38.5322 55.2646
521.444 -2.49757 55.1186
521.444 32.4684 55.1186
521.444 32.6296 55.1186
521.444 32.7907 55.1186
522.151 -2.81241 54.9734
522.151 -2.6517 54.9734
522.151 31.5794 54.9734
522.151 31.7401 54.9734
522.151 31.9008 54.9734
522.855 -3.44617 54.829
522.855 -3.28588 54.829
522.855 -3.1256 54.829
522.855 -2.96531 54.829
522.855 31.3361 54.829
523.555 -3.43714 54.6853
523.555 -3.1174 54.6853
523.555 -2.95754 54.6853
523.555 30.4546 54.6853
523.555 30.6145 54.6853
523.555 30.7744 54.6853
523.555 30.9342 54.6853
523.555 31.0941 54.6853
524.252 -3.9065 54.5423
524.252 -3.74705 54.5423
524.252 30.0561 54.5423
524.252 30.2156 54.5423
524.252 30.375 54.5423
524.945 -5.32761 54.4001
524.945 -5.16858 54.4001
524.945 -5.00955 54.4001
524.945 -4.69148 54.4001
524.945 -4.53245 54.4001
526.319 -7.19848 54.1179
526.319 -7.04027 54.1179
526.319 -6.88206 54.1179
526.319 -6.72385 54.1179
526.319 -6.56565 54.1179
526.319 -6.40744 54.1179
526.319 -6.24923 54.1179
527.002 -7.49546 53.9779
527.002 -7.33766 53.9779
527.002 -7.17986 53.9779
527.68 -8.10568 53.8387
527.68 -7.94829 53.8387
527.68 -7.7909 53.8387
528.355 -8.3988 53.7001
528.355 -8.24181 53.7001
529.027 -8.69041 53.5623
529.695 -15.5402 53.4251
529.695 -15.384 53.4251
529.695 -9.76144 53.4251
529.695 -9.60525 53.4251
530.36 -15.5005 53.2887
530.36 -15.3447 53.2887
530.36 -9.89229 53.2887
530.36 -9.73651 53.2887
530.36 -9.58072 53.2887
530.36 -9.42494 53.2887
531.021 -14.8395 53.1529
531.021 -14.6841 53.1529
531.021 -14.5287 53.1529
531.021 -14.3733 53.1529
531.021 -14.0625 53.1529
531.021 -13.9072 53.1529
531.021 -13.7518 53.1529
531.021 -13.5964 53.1529
531.021 -11.2656 53.1529
531.021 -10.644 53.1529
531.021 -10.4886 53.1529
531.021 -10.3333 53.1529
531.021 -10.1779 53.1529
531.679 -13.0969 53.0179
531.679 -12.9419 53.0179
531.679 -12.7869 53.0179
531.679 -12.6319 53.0179
531.679 -12.4769 53.0179
531.679 -12.3219 53.0179
531.679 -12.1669 53.0179
531.679 -12.0119 53.0179
531.679 -11.8569 53.0179
531.679 -11.7019 53.0179
531.679 -11.5469 53.0179
531.679 -11.3919 53.0179
534.92 27.3191 52.3528
534.92 27.4721 52.3528
535.558 -29.6934 52.2218
536.193 -29.7715 52.0914
536.193 -29.6192 52.0914
536.193 26.7258 52.0914
536.825 -29.6974 51.9617
536.825 -29.3936 51.9617
484.673 -34.7156 49.7334
485.588 -34.429 49.5845
486.496 -34.3263 49.4365
486.496 -34.1442 49.4365
486.496 30.6842 49.4365
487.4 -33.861 49.2894
487.4 30.2298 49.2894
488.298 -33.5795 49.1431
488.298 -33.3984 49.1431
488.298 -33.2174 49.1431
489.19 -32.9387 48.9977
489.19 29.3289 48.9977
490.078 -32.6615 48.8532
490.078 -32.4816 48.8532
490.078 28.8825 48.8532
490.96 -32.2066 48.7095
490.96 -32.0272 48.7095
490.96 28.6181 48.7095
491.837 -31.7544 48.5666
491.837 -31.5755 48.5666
492.709 -31.3048 48.4246
492.709 -31.1264 48.4246
492.709 27.3805 48.4246
492.709 27.5589 48.4246
494.437 -30.4134 48.143
494.437 -30.2361 48.143
494.437 -30.0587 48.143
494.437 -29.8814 48.143
494.437 26.8666 48.143
495.294 -29.9716 48.0035
495.294 -29.7948 48.0035
495.294 -29.6179 48.0035
495.294 26.4351 48.0035
496.146 -29.356 47.8647
496.146 -29.1797 47.8647
496.146 25.6535 47.8647
496.146 25.8298 47.8647
496.993 -28.9198 47.7268
496.993 -28.744 47.7268
496.993 -28.5682 47.7268
496.993 25.2279 47.7268
497.835 -28.1355 47.5896
497.835 24.6295 47.5896
498.672 -27.8801 47.4533
498.672 -27.7053 47.4533
498.672 -27.5305 47.4533
498.672 24.3841 47.4533
499.505 -27.2775 47.3177
499.505 -27.1032 47.3177
499.505 -26.9289 47.3177
499.505 23.9659 47.3177
500.332 -26.5046 47.1828
500.332 -26.3308 47.1828
500.332 23.0286 47.1828
500.332 23.2024 47.1828
500.332 23.3762 47.1828
500.332 23.55 47.1828
501.155 22.6165 47.0488
501.974 -25.3175 46.9155
501.974 -25.1447 46.9155
501.974 -24.9719 46.9155
501.974 22.034 46.9155
502.787 -25.0737 46.783
502.787 -24.9013 46.783
502.787 21.9718 46.783
503.596 -24.3157 46.6512
503.596 -24.1438 46.6512
503.596 -23.972 46.6512
503.596 -23.8001 46.6512
503.596 -23.6283 46.6512
503.596 20.1915 46.6512
503.596 20.3633 46.6512
503.596 20.5351 46.6512
503.596 20.707 46.6512
503.596 20.8788 46.6512
503.596 21.0507 46.6512
504.401 -23.3906 46.5201
504.401 -23.2192 46.5201
504.401 -23.0479 46.5201
504.401 19.6207 46.5201
504.401 19.792 46.5201
504.401 19.9634 46.5201
505.201 -22.2998 46.3898
505.201 -22.1289 46.3898
505.201 -21.958 46.3898
505.201 18.0278 46.3898
505.201 18.1987 46.3898
505.996 -21.3855 46.2602
505.996 -21.2151 46.2602
505.996 17.6366 46.2602
505.996 18.1478 46.2602
505.996 18.3182 46.2602
505.996 18.4886 46.2602
506.788 -21.3259 46.1314
506.788 -21.156 46.1314
506.788 -20.986 46.1314
506.788 17.2476 46.1314
506.788 17.4176 46.1314
507.574 -20.4194 46.0032
507.574 15.3357 46.0032
507.574 15.5052 46.0032
507.574 15.6746 46.0032
507.574 15.8441 46.0032
507.574 16.0135 46.0032
507.574 16.183 46.0032
507.574 16.3524 46.0032
507.574 16.5219 46.0032
507.574 16.6914 46.0032
507.574 16.8608 46.0032
508.357 -19.8558 45.8758
508.357 -19.6869 45.8758
509.135 -19.2954 45.749
509.135 -19.1269 45.749
509.135 12.8917 45.749
509.135 13.7343 45.749
509.135 13.9028 45.749
509.135 14.0713 45.749
509.135 14.2399 45.749
509.135 14.4084 45.749
509.909 -19.0742 45.623
509.909 -18.9062 45.623
509.909 12.6881 45.623
509.909 12.8562 45.623
509.909 13.0242 45.623
509.909 13.1923 45.623
509.909 13.3604 45.623
509.909 13.5284 45.623
509.909 13.6965 45.623
509.909 13.8645 45.623
509.909 14.0326 45.623
510.678 -18.3514 45.4976
510.678 11.4801 45.4976
510.678 11.6477 45.4976
510.678 11.8153 45.4976
510.678 11.9829 45.4976
510.678 12.1505 45.4976
510.678 12.3181 45.4976
511.443 11.2815 45.373
512.205 7.91717 45.249
512.205 8.08385 45.249
512.205 8.4172 45.249
512.205 8.58388 45.249
512.205 8.75055 45.249
512.205 8.91723 45.249
512.205 9.08391 45.249
512.205 9.25059 45.249
512.205 9.41726 45.249
513.714 6.05065 45.0031
513.714 6.21642 45.0031
513.714 6.3822 45.0031
513.714 6.54797 45.0031
513.714 6.71374 45.0031
513.714 6.87951 45.0031
513.714 7.04528 45.0031
514.463 -17.1108 44.8811
514.463 -16.9455 44.8811
514.463 2.56249 44.8811
514.463 2.72781 44.8811
514.463 3.55442 44.8811
514.463 3.71975 44.8811
514.463 3.88507 44.8811
514.463 4.05039 44.8811
514.463 4.21571 44.8811
514.463 4.38103 44.8811
514.463 4.54636 44.8811
514.463 5.37297 44.8811
514.463 5.53829 44.8811
514.463 5.70361 44.8811
514.463 5.86893 44.8811
515.208 1.89606 44.7598
515.208 2.06094 44.7598
515.949 -16.1964 44.6391
515.949 -0.0822154 44.6391
515.949 0.0822154 44.6391
515.949 0.246646 44.6391
515.949 0.411077 44.6391
515.949 0.575508 44.6391
515.949 0.739938 44.6391
515.949 0.904369 44.6391
515.949 1.0688 44.6391
516.685 -15.9889 44.5191
516.685 33.0437 44.5191
517.418 -15.7825 44.3998
517.418 -15.6189 44.3998
517.418 -15.4554 44.3998
517.418 -2.04436 44.3998
517.418 -1.88081 44.3998
517.418 -1.71727 44.3998
517.418 -1.55372 44.3998
517.418 -1.39017 44.3998
517.418 31.9738 44.3998
517.418 32.1374 44.3998
517.418 32.3009 44.3998
517.418 32.4645 44.3998
517.418 32.628 44.3998
517.418 32.9551 44.3998
518.147 -15.2509 44.281
518.147 -15.0878 44.281
518.147 -14.9247 44.281
518.147 -14.7616 44.281
518.147 -14.5985 44.281
518.147 -14.4354 44.281
518.147 -3.34379 44.281
518.147 -3.18068 44.281
518.147 -3.01757 44.281
518.147 -2.85446 44.281
518.872 -13.9089 44.163
518.872 -13.7462 44.163
518.872 -4.14826 44.163
518.872 -3.98558 44.163
518.872 -3.8229 44.163
518.872 -3.66023 44.163
518.872 28.8751 44.163
518.872 29.0378 44.163
518.872 29.2005 44.163
518.872 29.3632 44.163
518.872 29.5258 44.163
518.872 29.6885 44.163
518.872 29.8512 44.163
519.593 -12.5739 44.0455
519.593 -12.4117 44.0455
519.593 -11.276 44.0455
519.593 -11.1137 44.0455
519.593 -10.9515 44.0455
519.593 -10.7892 44.0455
519.593 -10.627 44.0455
519.593 -10.4647 44.0455
519.593 -10.3025 44.0455
519.593 -10.1403 44.0455
519.593 -9.97801 44.0455
519.593 -9.81577 44.0455
519.593 -9.65352 44.0455
519.593 -9.49128 44.0455
519.593 -6.73313 44.0455
519.593 -6.57088 44.0455
519.593 -6.40864 44.0455
519.593 -6.2464 44.0455
519.593 -6.08415 44.0455
519.593 -5.92191 44.0455
519.593 -5.75966 44.0455
519.593 -5.59742 44.0455
519.593 -5.43518 44.0455
519.593 -5.27293 44.0455
519.593 -5.11069 44.0455
519.593 -4.94844 44.0455
520.311 -12.3787 43.9287
520.311 -11.2461 43.9287
520.311 -11.0842 43.9287
520.311 -10.9224 43.9287
520.311 -10.7606 43.9287
520.311 -10.5988 43.9287
520.311 -10.437 43.9287
520.311 -10.2752 43.9287
520.311 -10.1134 43.9287
520.311 -9.95154 43.9287
520.311 -9.78973 43.9287
520.311 -9.62791 43.9287
520.311 -9.14247 43.9287
520.311 -8.98066 43.9287
520.311 -8.81885 43.9287
520.311 -8.65703 43.9287
520.311 -8.17159 43.9287
520.311 -8.00978 43.9287
520.311 -7.84796 43.9287
520.311 -7.68615 43.9287
520.311 -7.52434 43.9287
520.311 -7.36252 43.9287
520.311 -7.20071 43.9287
520.311 -7.03889 43.9287
520.311 -6.87708 43.9287
520.311 -6.71527 43.9287
520.311 -6.55345 43.9287
520.311 -6.39164 43.9287
520.311 -6.22983 43.9287
520.311 -6.06801 43.9287
520.311 -5.9062 43.9287
520.311 -5.74439 43.9287
520.311 -5.58257 43.9287
520.311 -5.42076 43.9287
520.311 -5.25894 43.9287
520.311 -5.09713 43.9287
520.311 -4.93532 43.9287
521.024 -8.47274 43.8124
521.024 -8.31136 43.8124
479.459 -34.3768 37.43
480.405 -33.9006 37.316
480.405 29.814 37.316
481.345 -33.6125 37.2027
482.279 -33.5108 37.0901
482.279 -33.3262 37.0901
483.208 -33.0415 36.9782
483.208 28.8078 36.9782
484.131 -32.5751 36.8669
485.048 -32.2944 36.7563
486.867 -31.5562 36.5371
486.867 27.5548 36.5371
487.768 -31.4624 36.4285
488.664 -30.8267 36.3206
488.664 26.8491 36.3206
490.439 -30.2856 36.1065
491.32 -29.659 36.0004
491.32 25.358 36.0004
491.32 25.5372 36.0004
492.194 -29.3934 35.895
492.194 24.9263 35.895
493.064 -28.9512 35.7902
493.064 24.1409 35.7902
493.064 24.319 35.7902
493.064 24.4972 35.7902
494.789 -28.2517 35.5823
494.789 -28.0746 35.5823
494.789 -27.8975 35.5823
494.789 23.4693 35.5823
495.643 -27.9933 35.4793
495.643 -27.8167 35.4793
495.643 -27.6401 35.4793
495.643 22.3417 35.4793
495.643 22.5183 35.4793
495.643 22.6949 35.4793
495.643 22.8715 35.4793
496.493 -27.3842 35.3769
496.493 21.7489 35.3769
496.493 21.925 35.3769
497.338 -26.9542 35.275
498.178 -26.7017 35.1738
498.178 20.0482 35.1738
498.178 20.2233 35.1738
499.013 -26.6253 35.0731
499.013 19.8162 35.0731
499.844 19.4114 34.973
500.67 -26.1265 34.8735
500.67 17.9674 34.8735
500.67 18.141 34.8735
500.67 18.3146 34.8735
500.67 18.4882 34.8735
502.307 -25.4608 34.6761
502.307 -25.2882 34.6761
502.307 -25.1156 34.6761
502.307 15.7943 34.6761
502.307 15.967 34.6761
502.307 16.1396 34.6761
502.307 16.3122 34.6761
502.307 16.4848 34.6761
502.307 16.6574 34.6761
502.307 16.83 34.6761
503.119 -25.0447 34.5783
503.119 -24.8726 34.5783
503.119 16.2662 34.5783
503.119 16.4383 34.5783
503.926 -24.631 34.481
503.926 -24.4593 34.481
503.926 -24.2877 34.481
503.926 -24.116 34.481
503.926 15.1905 34.481
503.926 15.3622 34.481
504.729 -23.8772 34.3842
504.729 -23.706 34.3842
504.729 -23.3637 34.3842
504.729 13.7786 34.3842
504.729 13.9498 34.3842
504.729 14.1209 34.3842
504.729 14.2921 34.3842
504.729 14.4632 34.3842
504.729 14.6344 34.3842
505.527 -23.1276 34.288
505.527 -22.957 34.288
505.527 -22.7863 34.288
505.527 -22.6156 34.288
505.527 13.3987 34.288
506.321 -21.8717 34.1923
506.321 11.9996 34.1923
506.321 12.1698 34.1923
506.321 12.34 34.1923
507.11 -21.8108 34.0972
507.11 -21.6411 34.0972
507.11 -21.4713 34.0972
507.11 11.457 34.0972
507.11 11.6268 34.0972
507.11 11.7965 34.0972
507.11 11.9662 34.0972
507.11 12.136 34.0972
507.895 -21.0732 34.0026
507.895 -20.904 34.0026
507.895 -20.7347 34.0026
507.895 -20.5654 34.0026
507.895 10.9175 34.0026
507.895 11.0867 34.0026
507.895 11.256 34.0026
508.676 -20.0022 33.9085
508.676 9.70569 33.9085
508.676 9.87448 33.9085
508.676 10.0433 33.9085
509.452 -19.2736 33.8149
509.452 -19.1053 33.8149
509.452 -18.937 33.8149
509.452 -18.7687 33.8149
509.452 -17.927 33.8149
509.452 -17.7587 33.8149
509.452 -17.5904 33.8149
509.452 9.17392 33.8149
509.452 9.34225 33.8149
510.224 -18.717 33.7218
510.224 -18.5491 33.7218
510.224 -18.3813 33.7218
510.224 -18.2134 33.7218
510.224 -18.0455 33.7218
510.224 -17.8777 33.7218
510.224 -17.7098 33.7218
510.224 -17.5419 33.7218
510.224 -17.3741 33.7218
510.224 -17.2062 33.7218
510.224 8.98081 33.7218
510.224 9.14867 33.7218
510.992 -16.1546 33.6293
510.992 -15.9872 33.6293
510.992 -15.8198 33.6293
510.992 -15.6524 33.6293
510.992 -15.4849 33.6293
510.992 -15.3175 33.6293
510.992 -15.1501 33.6293
510.992 -14.9827 33.6293
510.992 8.11914 33.6293
510.992 8.28654 33.6293
510.992 8.45395 33.6293
511.755 -14.4409 33.5373
511.755 6.92829 33.5373
511.755 7.09523 33.5373
511.755 7.26218 33.5373
511.755 7.42913 33.5373
512.515 -14.0685 33.4457
512.515 5.24447 33.4457
512.515 5.41096 33.4457
512.515 5.57745 33.4457
512.515 5.74394 33.4457
512.515 5.91043 33.4457
512.515 6.07692 33.4457
512.515 6.24341 33.4457
512.515 6.40991 33.4457
513.27 2.40755 33.3547
513.27 2.57359 33.3547
513.27 2.73962 33.3547
513.27 3.0717 33.3547
513.27 3.23774 33.3547
513.27 3.40378 33.3547
513.27 3.56981 33.3547
513.27 3.73585 33.3547
513.27 3.90189 33.3547
513.27 4.06793 33.3547
513.27 4.23397 33.3547
514.021 -12.9986 33.2642
514.021 -12.5018 33.2642
514.021 -12.3362 33.2642
514.021 -12.1707 33.2642
514.021 -12.0051 33.2642
514.021 -11.8395 33.2642
514.021 -11.6739 33.2642
514.021 -11.5083 33.2642
514.021 -11.3427 33.2642
514.021 -11.1771 33.2642
514.021 -11.0115 33.2642
514.021 -5.54717 33.2642
514.021 -4.22247 33.2642
514.021 -4.05689 33.2642
514.021 -3.8913 33.2642
514.021 -3.72571 33.2642
514.021 -3.56012 33.2642
514.021 -3.39454 33.2642
514.021 -3.22895 33.2642
514.021 -3.06336 33.2642
514.021 -2.89778 33.2642
514.021 -2.73219 33.2642
514.021 -2.5666 33.2642
514.021 -2.40101 33.2642
514.021 -2.23543 33.2642
514.021 0.0827936 33.2642
514.021 0.248381 33.2642
514.021 0.413968 33.2642
514.021 0.579555 33.2642
514.021 0.745142 33.2642
514.021 0.910729 33.2642
514.021 1.07632 33.2642
514.021 1.2419 33.2642
514.021 1.40749 33.2642
514.021 2.40101 33.2642
514.021 2.5666 33.2642
514.021 2.73219 33.2642
514.021 2.89778 33.2642
514.021 3.06336 33.2642
514.021 3.22895 33.2642
514.021 3.39454 33.2642
514.021 3.56012 33.2642
514.021 3.72571 33.2642
514.021 3.8913 33.2642
514.021 4.05689 33.2642
514.769 -10.6515 33.1741
514.769 -10.4863 33.1741
514.769 -10.3212 33.1741
514.769 -10.156 33.1741
514.769 -9.9909 33.1741
514.769 -9.82576 33.1741
514.769 -9.66062 33.1741
514.769 -9.49549 33.1741
514.769 -9.33035 33.1741
514.769 -9.16521 33.1741
514.769 -9.00007 33.1741
514.769 -8.83493 33.1741
514.769 -8.66979 33.1741
514.769 -6.35785 33.1741
514.769 -6.19271 33.1741
514.769 -6.02757 33.1741
514.769 -5.86243 33.1741
514.769 -5.69729 33.1741
514.769 -5.53215 33.1741
514.769 -4.8716 33.1741
514.769 -4.70646 33.1741
514.769 -4.54132 33.1741
514.769 -4.37618 33.1741
514.769 -4.21104 33.1741
514.769 -4.0459 33.1741
514.769 -2.39451 33.1741
514.769 -2.22937 33.1741
514.769 -2.06424 33.1741
514.769 -1.8991 33.1741
514.769 -1.73396 33.1741
514.769 -1.56882 33.1741
514.769 -1.40368 33.1741
514.769 -1.23854 33.1741
514.769 -1.0734 33.1741
514.769 -0.908264 33.1741
514.769 -0.743125 33.1741
514.769 -0.577986 33.1741
514.769 -0.412847 33.1741
514.769 -0.247708 33.1741
514.769 -0.0825694 33.1741
514.769 0.0825694 33.1741
514.769 0.247708 33.1741
514.769 0.412847 33.1741
514.769 0.577986 33.1741
519.168 26.4061 32.6439
520.603 25.7813 32.4709
521.315 25.5519 32.385
522.728 24.7761 32.2148
463.931 29.8353 25.4911
464.974 29.3499 25.4096
466.01 28.6731 25.3287
466.01 28.8675 25.3287
479.847 -30.9843 24.2469
480.79 -30.7045 24.1731
481.728 -30.2415 24.0998
483.586 -29.6915 23.9546
485.422 23.3002 23.811
487.236 -28.4295 23.6692
487.236 22.2531 23.6692
488.135 -28.164 23.599
488.135 21.8248 23.599
488.135 22.0059 23.599
489.029 -27.9 23.5291
489.029 -27.7194 23.5291
489.917 -27.4576 23.4596
489.917 20.6157 23.4596
489.917 20.7957 23.4596
491.678 -26.9385 23.322
491.678 -26.7595 23.322
491.678 19.0628 23.322
491.678 19.2418 23.322
491.678 19.4207 23.322
491.678 19.5997 23.322
491.678 19.7787 23.322
492.551 -26.5027 23.2537
492.551 18.4716 23.2537
492.551 18.65 23.2537
492.551 18.8285 23.2537
493.419 -26.0695 23.1859
493.419 18.0618 23.1859
495.139 -25.0337 23.0514
495.139 16.1879 23.0514
495.139 16.7186 23.0514
495.139 16.8955 23.0514
495.992 -24.9613 22.9847
495.992 -24.7849 22.9847
495.992 15.9646 22.9847
496.84 -24.3616 22.9185
496.84 -24.1857 22.9185
496.84 14.6873 22.9185
496.84 14.8632 22.9185
496.84 15.0391 22.9185
496.84 15.215 22.9185
497.683 -23.59 22.8526
497.683 14.1189 22.8526
497.683 14.2943 22.8526
499.354 -22.932 22.7219
