# .PCD v0.7 - Point Cloud Data file format
VERSION 0.7
FIELDS x y z
SIZE 4 4 4
TYPE F F F
COUNT 1 1 1
WIDTH 1729
HEIGHT 1
VIEWPOINT 0 0 0 1 0 0 0
POINTS 1729
DATA ascii
72.287903 74.3535 26.309601
72.287903 75.002899 26.309601
72.287903 75.652199 26.309601
72.287903 76.301598 26.309601
72.287903 76.950996 26.309601
72.287903 77.600403 26.309601
72.287903 78.249702 26.309601
72.287903 78.899101 26.309601
72.287903 79.5485 26.309601
72.287903 80.197899 26.309601
72.287903 80.847198 26.309601
72.287903 81.496597 26.309601
72.287903 82.146004 26.309601
72.287903 82.795403 26.309601
72.287903 83.444702 26.309601
72.287903 84.094101 26.309601
72.287903 84.7435 26.309601
72.287903 85.392899 26.309601
72.287903 86.042198 26.309601
78.218002 -25.5054 26.160999
78.218002 -24.859699 26.160999
78.218002 -24.214001 26.160999
78.218002 -23.5683 26.160999
78.218002 -22.9226 26.160999
78.218002 -22.276899 26.160999
78.218002 -21.631201 26.160999
78.218002 -20.9855 26.160999
78.218002 -20.3398 26.160999
78.218002 -19.694099 26.160999
78.218002 -19.048401 26.160999
78.218002 -18.402599 26.160999
78.218002 -17.756901 26.160999
78.218002 -16.4655 26.160999
78.218002 -15.8198 26.160999
78.218002 -15.1741 26.160999
78.218002 -14.5284 26.160999
78.218002 55.853699 26.160999
78.218002 56.499401 26.160999
78.218002 57.1451 26.160999
78.218002 57.790798 26.160999
78.218002 58.436501 26.160999
78.218002 59.082199 26.160999
78.218002 59.727901 26.160999
78.218002 60.3736 26.160999
78.218002 61.019299 26.160999
78.218002 61.665001 26.160999
78.218002 62.310699 26.160999
78.218002 62.956402 26.160999
78.218002 63.6021 26.160999
78.218002 64.247803 26.160999
78.218002 64.8936 26.160999
78.218002 65.539299 26.160999
78.218002 66.184998 26.160999
78.218002 66.830704 26.160999
78.218002 67.476402 26.160999
78.218002 68.122101 26.160999
78.218002 68.767799 26.160999
78.218002 69.413498 26.160999
78.218002 70.059196 26.160999
78.218002 70.704903 26.160999
78.218002 71.350601 26.160999
78.218002 71.9963 26.160999
78.218002 72.641998 26.160999
78.218002 73.287697 26.160999
78.218002 73.933403 26.160999
78.218002 74.579201 26.160999
78.218002 75.224899 26.160999
78.218002 75.870598 26.160999
78.218002 76.516296 26.160999
84.081497 13.8047 26.014
84.081497 14.4468 26.014
84.081497 15.0889 26.014
84.081497 15.731 26.014
84.081497 16.372999 26.014
84.081497 17.0151 26.014
84.081497 22.1518 26.014
84.081497 22.7938 26.014
84.081497 23.4359 26.014
84.081497 24.7201 26.014
84.081497 27.9305 26.014
84.081497 28.5725 26.014
84.081497 29.2146 26.014
84.081497 29.856701 26.014
84.081497 30.4988 26.014
84.081497 31.1409 26.014
84.081497 31.7829 26.014
84.081497 32.424999 26.014
84.081497 33.067101 26.014
84.081497 33.709202 26.014
84.081497 34.351299 26.014
84.081497 34.993301 26.014
84.081497 38.203701 26.014
84.081497 38.845798 26.014
84.081497 39.4879 26.014
84.081497 40.130001 26.014
84.081497 40.772099 26.014
84.081497 41.414101 26.014
84.081497 42.056198 26.014
84.081497 43.340401 26.014
84.081497 43.982498 26.014
84.081497 44.6245 26.014
84.081497 45.266602 26.014
84.081497 45.908699 26.014
84.081497 46.5508 26.014
84.081497 54.8978 26.014
84.081497 55.539902 26.014
84.081497 56.181999 26.014
84.081497 56.8241 26.014
84.081497 57.466099 26.014
84.081497 58.1082 26.014
84.081497 58.750301 26.014
84.081497 59.392399 26.014
84.081497 60.0345 26.014
84.081497 60.676498 26.014
84.081497 61.3186 26.014
84.081497 61.960701 26.014
84.081497 62.602798 26.014
84.081497 63.2449 26.014
84.081497 63.886902 26.014
84.081497 64.528999 26.014
84.081497 65.171097 26.014
89.879402 14.3661 25.8687
89.879402 15.0046 25.8687
89.879402 15.6431 25.8687
89.879402 16.281601 25.8687
89.879402 22.028 25.8687
89.879402 22.6665 25.8687
89.879402 25.220501 25.8687
89.879402 28.412901 25.8687
89.879402 29.051399 25.8687
89.879402 29.689899 25.8687
89.879402 30.3284 25.8687
89.879402 30.9669 25.8687
89.879402 31.6054 25.8687
89.879402 32.2439 25.8687
89.879402 32.882401 25.8687
89.879402 33.520901 25.8687
89.879402 34.159401 25.8687
89.879402 38.628799 25.8687
89.879402 39.2673 25.8687
89.879402 39.9058 25.8687
89.879402 40.5443 25.8687
89.879402 41.1828 25.8687
89.879402 43.736801 25.8687
89.879402 44.375301 25.8687
89.879402 45.013802 25.8687
89.879402 45.652199 25.8687
28.1457 -77.480202 21.9328
28.1457 -76.803497 21.9328
34.5835 -77.696899 21.803699
34.5835 -77.0242 21.803699
34.5835 -76.351501 21.803699
34.5835 -75.678802 21.803699
34.5835 -75.006104 21.803699
34.5835 -74.333397 21.803699
34.5835 -73.660698 21.803699
34.5835 -72.987999 21.803699
34.5835 -72.3153 21.803699
34.5835 122.095 21.803699
34.5835 122.768 21.803699
34.5835 123.441 21.803699
34.5835 124.113 21.803699
34.5835 124.786 21.803699
34.5835 125.459 21.803699
34.5835 126.131 21.803699
34.5835 126.804 21.803699
34.5835 127.477 21.803699
34.5835 128.149 21.803699
34.5835 128.82201 21.803699
34.5835 129.495 21.803699
34.5835 130.168 21.803699
34.5835 130.84 21.803699
34.5835 131.513 21.803699
34.5835 132.186 21.803699
34.5835 132.858 21.803699
34.5835 133.53101 21.803699
34.5835 134.20399 21.803699
34.5835 134.87601 21.803699
34.5835 135.549 21.803699
34.5835 136.222 21.803699
34.5835 136.895 21.803699
34.5835 137.567 21.803699
34.5835 138.24001 21.803699
34.5835 138.91299 21.803699
34.5835 139.58501 21.803699
34.5835 140.258 21.803699
34.5835 140.931 21.803699
34.5835 141.603 21.803699
34.5835 142.276 21.803699
34.5835 142.94901 21.803699
34.5835 143.62199 21.803699
34.5835 144.29401 21.803699
34.5835 144.967 21.803699
34.5835 145.64 21.803699
34.5835 146.312 21.803699
34.5835 146.985 21.803699
40.9459 -73.229698 21.6761
40.9459 -72.560898 21.6761
40.9459 -71.892197 21.6761
40.9459 -71.223396 21.6761
40.9459 -70.554604 21.6761
40.9459 -69.885902 21.6761
40.9459 -69.217102 21.6761
40.9459 -68.548302 21.6761
40.9459 -67.879601 21.6761
40.9459 -67.2108 21.6761
40.9459 132.08099 21.6761
40.9459 132.75 21.6761
40.9459 133.418 21.6761
40.9459 134.08701 21.6761
40.9459 134.756 21.6761
40.9459 135.425 21.6761
40.9459 136.09399 21.6761
40.9459 136.76199 21.6761
40.9459 140.106 21.6761
40.9459 140.77499 21.6761
47.234299 -67.484703 21.5501
47.234299 -66.819901 21.5501
47.234299 -66.154999 21.5501
47.234299 -65.490097 21.5501
47.234299 -64.825203 21.5501
47.234299 -64.1604 21.5501
47.234299 -63.495499 21.5501
47.234299 -62.830601 21.5501
47.234299 -62.165699 21.5501
47.234299 -61.5009 21.5501
47.234299 -60.835999 21.5501
47.234299 -60.171101 21.5501
53.450001 -62.467201 21.4254
53.450001 -61.806198 21.4254
53.450001 -61.145199 21.4254
53.450001 -60.4842 21.4254
53.450001 -59.823101 21.4254
53.450001 -59.162102 21.4254
53.450001 -58.501099 21.4254
53.450001 -57.84 21.4254
53.450001 -57.179001 21.4254
53.450001 -56.518002 21.4254
53.450001 -55.856998 21.4254
53.450001 102.79 21.4254
53.450001 103.451 21.4254
53.450001 104.112 21.4254
53.450001 104.773 21.4254
59.5942 -55.535801 21.3022
59.5942 -54.878502 21.3022
59.5942 -46.991798 21.3022
59.5942 -46.334599 21.3022
59.5942 -45.677399 21.3022
59.5942 -45.0201 21.3022
59.5942 96.941101 21.3022
59.5942 97.598396 21.3022
59.5942 98.2556 21.3022
59.5942 98.912804 21.3022
59.5942 99.570099 21.3022
59.5942 100.227 21.3022
59.5942 100.885 21.3022
59.5942 101.542 21.3022
59.5942 102.199 21.3022
59.5942 102.856 21.3022
59.5942 103.513 21.3022
65.668098 -47.376598 21.180401
65.668098 -46.723099 21.180401
65.668098 -46.069698 21.180401
65.668098 -45.416199 21.180401
65.668098 -44.762699 21.180401
65.668098 -44.109299 21.180401
65.668098 -43.455799 21.180401
65.668098 -42.802299 21.180401
65.668098 -42.148899 21.180401
65.668098 -41.495399 21.180401
65.668098 -40.8419 21.180401
65.668098 -40.1884 21.180401
65.668098 -39.535 21.180401
65.668098 -38.8815 21.180401
65.668098 -38.228001 21.180401
65.668098 -37.5746 21.180401
65.668098 89.1987 21.180401
65.668098 89.852203 21.180401
65.668098 90.505699 21.180401
65.668098 91.159203 21.180401
65.668098 91.812599 21.180401
65.668098 92.466103 21.180401
65.668098 93.119598 21.180401
65.668098 93.773003 21.180401
65.668098 94.426498 21.180401
65.668098 95.080002 21.180401
65.668098 95.733398 21.180401
65.668098 96.386902 21.180401
65.668098 97.040398 21.180401
65.668098 97.693901 21.180401
71.672997 -41.259499 21.059999
71.672997 -40.609699 21.059999
71.672997 -39.959999 21.059999
71.672997 -39.3102 21.059999
71.672997 -38.6605 21.059999
71.672997 -38.0107 21.059999
71.672997 -37.361 21.059999
71.672997 -36.711201 21.059999
71.672997 -36.061501 21.059999
71.672997 -35.411701 21.059999
71.672997 -34.761902 21.059999
71.672997 -34.112202 21.059999
71.672997 -33.462399 21.059999
71.672997 -32.812698 21.059999
71.672997 -32.162899 21.059999
71.672997 -31.513201 21.059999
71.672997 -30.8634 21.059999
71.672997 -30.2136 21.059999
71.672997 -29.5639 21.059999
71.672997 -28.914101 21.059999
71.672997 -28.2644 21.059999
71.672997 -27.614599 21.059999
71.672997 -26.964899 21.059999
71.672997 -26.3151 21.059999
71.672997 -25.6654 21.059999
71.672997 -25.0156 21.059999
71.672997 79.5951 21.059999
71.672997 80.244797 21.059999
71.672997 80.8946 21.059999
71.672997 81.544403 21.059999
71.672997 82.194099 21.059999
71.672997 82.843903 21.059999
71.672997 83.493599 21.059999
71.672997 84.143402 21.059999
71.672997 84.793098 21.059999
71.672997 85.442902 21.059999
71.672997 86.092697 21.059999
71.672997 86.742401 21.059999
71.672997 87.392197 21.059999
71.672997 88.041901 21.059999
71.672997 88.691704 21.059999
71.672997 89.3414 21.059999
71.672997 89.991203 21.059999
71.672997 90.6409 21.059999
71.672997 91.290703 21.059999
71.672997 91.940498 21.059999
77.610001 -33.2733 20.941
77.610001 -32.627201 20.941
77.610001 -31.9811 20.941
77.610001 -31.334999 20.941
77.610001 -30.6889 20.941
77.610001 -30.0429 20.941
77.610001 -29.396799 20.941
77.610001 -28.7507 20.941
77.610001 -28.104601 20.941
77.610001 -27.4585 20.941
77.610001 -26.812401 20.941
77.610001 -26.166401 20.941
77.610001 -25.5203 20.941
77.610001 -24.874201 20.941
77.610001 -24.2281 20.941
77.610001 -23.582001 20.941
77.610001 -22.936001 20.941
77.610001 -22.2899 20.941
77.610001 -21.643801 20.941
77.610001 -20.9977 20.941
77.610001 -20.351601 20.941
77.610001 -19.7055 20.941
77.610001 -19.0595 20.941
77.610001 -18.413401 20.941
77.610001 -17.7673 20.941
77.610001 -17.121201 20.941
77.610001 -16.4751 20.941
77.610001 -15.829 20.941
77.610001 -15.183 20.941
77.610001 -14.5369 20.941
77.610001 -13.8908 20.941
77.610001 -13.2447 20.941
77.610001 -12.5986 20.941
77.610001 -11.9525 20.941
77.610001 -11.3065 20.941
77.610001 65.5774 20.941
77.610001 66.223503 20.941
77.610001 66.869598 20.941
77.610001 67.515701 20.941
77.610001 68.161797 20.941
77.610001 68.807899 20.941
77.610001 69.453903 20.941
77.610001 70.099998 20.941
77.610001 70.746101 20.941
77.610001 71.392197 20.941
77.610001 72.0383 20.941
77.610001 72.684303 20.941
77.610001 73.330399 20.941
77.610001 73.976501 20.941
77.610001 74.622597 20.941
77.610001 75.2687 20.941
77.610001 75.914803 20.941
77.610001 76.560799 20.941
77.610001 77.206902 20.941
77.610001 77.852997 20.941
77.610001 78.4991 20.941
77.610001 79.145203 20.941
77.610001 79.791298 20.941
77.610001 80.437302 20.941
77.610001 81.083397 20.941
77.610001 81.7295 20.941
77.610001 82.375603 20.941
77.610001 83.021698 20.941
77.610001 83.667801 20.941
83.480202 -19.594801 20.823299
83.480202 -18.952299 20.823299
83.480202 -18.3099 20.823299
83.480202 -17.6674 20.823299
83.480202 -17.025 20.823299
83.480202 -16.3825 20.823299
83.480202 -15.7401 20.823299
83.480202 -15.0976 20.823299
83.480202 -14.4552 20.823299
83.480202 -13.8127 20.823299
83.480202 -13.1703 20.823299
83.480202 -12.5278 20.823299
83.480202 -11.8854 20.823299
83.480202 -11.2429 20.823299
83.480202 -10.6005 20.823299
83.480202 46.577702 20.823299
83.480202 47.2202 20.823299
83.480202 51.074902 20.823299
83.480202 51.7174 20.823299
83.480202 52.359798 20.823299
83.480202 53.0023 20.823299
83.480202 53.644699 20.823299
83.480202 54.287201 20.823299
83.480202 54.9296 20.823299
83.480202 55.572102 20.823299
83.480202 56.2145 20.823299
83.480202 56.856998 20.823299
83.480202 57.499401 20.823299
83.480202 58.141899 20.823299
83.480202 58.784302 20.823299
83.480202 59.4268 20.823299
83.480202 60.069199 20.823299
83.480202 60.7117 20.823299
83.480202 61.354099 20.823299
83.480202 61.996601 20.823299
83.480202 62.639 20.823299
83.480202 63.281502 20.823299
83.480202 63.923901 20.823299
83.480202 64.566399 20.823299
83.480202 65.208801 20.823299
83.480202 65.851303 20.823299
83.480202 66.493698 20.823299
83.480202 67.1362 20.823299
83.480202 67.778603 20.823299
83.480202 68.421097 20.823299
83.480202 69.063599 20.823299
83.480202 69.706001 20.823299
83.480202 70.348503 20.823299
83.480202 70.990898 20.823299
83.480202 71.6334 20.823299
83.480202 72.275803 20.823299
83.480202 72.918297 20.823299
89.284897 45.678501 20.7069
89.284897 46.317402 20.7069
89.284897 50.1506 20.7069
89.284897 50.789398 20.7069
89.284897 51.428299 20.7069
89.284897 52.0672 20.7069
89.284897 52.706001 20.7069
89.284897 53.344898 20.7069
89.284897 53.9837 20.7069
89.284897 54.622601 20.7069
89.284897 55.261501 20.7069
89.284897 55.900299 20.7069
89.284897 56.5392 20.7069
89.284897 57.178001 20.7069
89.284897 57.816898 20.7069
89.284897 58.455799 20.7069
89.284897 59.094601 20.7069
89.284897 59.733501 20.7069
89.284897 60.372299 20.7069
27.4779 -81.590103 16.4596
27.4779 -80.913002 16.4596
27.4779 -80.235901 16.4596
27.4779 -79.5588 16.4596
27.4779 -78.881699 16.4596
33.9235 -79.763397 16.3627
33.9235 -79.090302 16.3627
33.9235 -78.417099 16.3627
33.9235 -77.744003 16.3627
33.9235 -77.0709 16.3627
33.9235 -76.397797 16.3627
33.9235 -75.724701 16.3627
33.9235 -75.051598 16.3627
33.9235 132.939 16.3627
33.9235 133.612 16.3627
33.9235 134.285 16.3627
33.9235 134.95799 16.3627
33.9235 142.362 16.3627
33.9235 143.036 16.3627
33.9235 143.709 16.3627
33.9235 144.382 16.3627
33.9235 145.05499 16.3627
33.9235 145.728 16.3627
33.9235 146.401 16.3627
33.9235 147.07401 16.3627
40.293701 -75.9505 16.266899
40.293701 -75.281403 16.266899
40.293701 -74.612198 16.266899
40.293701 -73.943001 16.266899
40.293701 -73.273903 16.266899
40.293701 -72.604698 16.266899
40.293701 -71.935501 16.266899
40.293701 -71.266403 16.266899
40.293701 -70.597198 16.266899
40.293701 -69.928001 16.266899
40.293701 132.161 16.266899
40.293701 132.83 16.266899
40.293701 133.49899 16.266899
40.293701 134.168 16.266899
40.293701 134.83701 16.266899
40.293701 140.19099 16.266899
40.293701 140.86 16.266899
40.293701 141.52901 16.266899
40.293701 142.198 16.266899
40.293701 142.867 16.266899
40.293701 143.536 16.266899
40.293701 144.20599 16.266899
40.293701 144.875 16.266899
40.293701 145.54401 16.266899
46.5896 -70.851601 16.172199
46.5896 -70.186302 16.172199
46.5896 -69.521004 16.172199
46.5896 -68.855797 16.172199
46.5896 -68.190498 16.172199
46.5896 -67.5252 16.172199
46.5896 -66.859901 16.172199
46.5896 -66.194702 16.172199
46.5896 -65.529404 16.172199
46.5896 -64.864098 16.172199
52.812698 -65.1502 16.0786
52.812698 -64.4888 16.0786
52.812698 -63.827301 16.0786
52.812698 -63.165901 16.0786
52.812698 -62.504501 16.0786
52.812698 -61.843102 16.0786
52.812698 -61.181599 16.0786
52.812698 -60.520199 16.0786
52.812698 -59.858799 16.0786
52.812698 -59.197399 16.0786
52.812698 -58.535999 16.0786
52.812698 -57.8745 16.0786
58.964199 -59.5144 15.9861
58.964199 -58.8568 15.9861
58.964199 -58.1992 15.9861
58.964199 -57.541599 15.9861
58.964199 -56.8839 15.9861
58.964199 -56.226299 15.9861
58.964199 -55.568699 15.9861
58.964199 -54.911098 15.9861
58.964199 -54.253502 15.9861
58.964199 -53.595798 15.9861
58.964199 -52.938202 15.9861
58.964199 -52.280602 15.9861
58.964199 -51.623001 15.9861
58.964199 -50.965401 15.9861
58.964199 101.602 15.9861
58.964199 102.26 15.9861
58.964199 102.917 15.9861
58.964199 103.575 15.9861
58.964199 104.232 15.9861
65.045403 -53.289299 15.8947
65.045403 -52.635399 15.8947
65.045403 -51.981499 15.8947
65.045403 -51.327702 15.8947
65.045403 -50.673801 15.8947
65.045403 -50.02 15.8947
65.045403 -49.3661 15.8947
65.045403 -48.712299 15.8947
65.045403 -48.058399 15.8947
65.045403 -47.404598 15.8947
65.045403 -46.750702 15.8947
65.045403 -46.096802 15.8947
65.045403 -45.443001 15.8947
65.045403 -44.789101 15.8947
65.045403 -44.1353 15.8947
65.045403 -43.4814 15.8947
65.045403 -42.827599 15.8947
65.045403 -42.173698 15.8947
65.045403 -41.519798 15.8947
65.045403 -40.866001 15.8947
65.045403 -40.212101 15.8947
65.045403 -39.5583 15.8947
65.045403 94.482201 15.8947
65.045403 95.136002 15.8947
65.045403 95.789902 15.8947
65.045403 96.443703 15.8947
65.045403 97.097603 15.8947
65.045403 97.751503 15.8947
65.045403 98.405296 15.8947
65.045403 99.059196 15.8947
65.045403 99.712997 15.8947
65.045403 100.367 15.8947
65.045403 101.021 15.8947
65.045403 101.675 15.8947
65.045403 102.328 15.8947
65.045403 102.982 15.8947
65.045403 103.636 15.8947
71.057297 -45.834599 15.8043
71.057297 -45.184502 15.8043
71.057297 -44.534401 15.8043
71.057297 -43.884201 15.8043
71.057297 -43.2341 15.8043
71.057297 -42.584 15.8043
71.057297 -41.9338 15.8043
71.057297 -41.283699 15.8043
71.057297 -40.633499 15.8043
71.057297 -39.983398 15.8043
71.057297 -39.333302 15.8043
71.057297 -38.683102 15.8043
71.057297 -36.7327 15.8043
71.057297 -36.0826 15.8043
71.057297 -35.432499 15.8043
71.057297 -34.782299 15.8043
71.057297 -34.132198 15.8043
71.057297 -33.481998 15.8043
71.057297 85.492996 15.8043
71.057297 86.143097 15.8043
71.057297 86.793297 15.8043
71.057297 87.443398 15.8043
71.057297 88.093498 15.8043
71.057297 88.743698 15.8043
71.057297 89.393799 15.8043
71.057297 90.0439 15.8043
71.057297 90.694099 15.8043
71.057297 91.3442 15.8043
71.057297 91.994301 15.8043
71.057297 92.644501 15.8043
71.057297 93.294601 15.8043
71.057297 93.944801 15.8043
71.057297 94.594902 15.8043
71.057297 95.245003 15.8043
71.057297 95.895203 15.8043
71.057297 96.545303 15.8043
77.001198 -35.878502 15.7149
77.001198 -35.232101 15.7149
77.001198 -34.585602 15.7149
77.001198 -33.939098 15.7149
77.001198 -33.292702 15.7149
77.001198 -32.646198 15.7149
77.001198 -28.121 15.7149
77.001198 -27.474501 15.7149
77.001198 -26.8281 15.7149
77.001198 -26.181601 15.7149
77.001198 -25.5352 15.7149
77.001198 -24.8887 15.7149
77.001198 -24.242201 15.7149
77.001198 -23.5958 15.7149
77.001198 -22.949301 15.7149
77.001198 -22.3029 15.7149
77.001198 -21.656401 15.7149
77.001198 -21.009899 15.7149
77.001198 -20.363501 15.7149
77.001198 -19.716999 15.7149
77.001198 74.6661 15.7149
77.001198 75.312599 15.7149
77.001198 75.959 15.7149
77.001198 76.605499 15.7149
77.001198 77.2519 15.7149
77.001198 77.898399 15.7149
77.001198 78.544899 15.7149
77.001198 79.191299 15.7149
77.001198 79.837799 15.7149
77.001198 80.4842 15.7149
77.001198 81.130699 15.7149
77.001198 81.777199 15.7149
77.001198 82.423599 15.7149
77.001198 83.070099 15.7149
77.001198 83.716499 15.7149
77.001198 84.362999 15.7149
77.001198 85.009399 15.7149
77.001198 85.655899 15.7149
77.001198 86.302399 15.7149
77.001198 86.948799 15.7149
77.001198 87.595299 15.7149
77.001198 88.241699 15.7149
77.001198 88.888199 15.7149
77.001198 89.534698 15.7149
82.878304 -27.32 15.6265
82.878304 -26.6772 15.6265
82.878304 -26.034401 15.6265
82.878304 -25.3915 15.6265
82.878304 -24.748699 15.6265
82.878304 -24.1059 15.6265
82.878304 -23.4631 15.6265
82.878304 -22.820299 15.6265
82.878304 -22.177401 15.6265
82.878304 -21.534599 15.6265
82.878304 -20.8918 15.6265
82.878304 -20.249001 15.6265
82.878304 -19.6061 15.6265
82.878304 -18.963301 15.6265
82.878304 -13.8207 15.6265
82.878304 -13.1779 15.6265
82.878304 -12.5351 15.6265
82.878304 -11.8922 15.6265
82.878304 -11.2494 15.6265
82.878304 -10.6066 15.6265
82.878304 -9.9637699 15.6265
82.878304 -9.3209496 15.6265
82.878304 -8.6781197 15.6265
82.878304 -8.0353003 15.6265
82.878304 -7.3924799 15.6265
82.878304 -6.1068301 15.6265
82.878304 -5.4640002 15.6265
82.878304 -4.8211799 15.6265
82.878304 60.746899 15.6265
82.878304 61.389702 15.6265
82.878304 62.032501 15.6265
82.878304 62.675301 15.6265
82.878304 63.318199 15.6265
82.878304 63.960999 15.6265
82.878304 64.603798 15.6265
82.878304 65.246597 15.6265
82.878304 65.889503 15.6265
82.878304 66.532303 15.6265
82.878304 67.175102 15.6265
82.878304 67.817902 15.6265
82.878304 68.4608 15.6265
82.878304 69.1036 15.6265
82.878304 69.746399 15.6265
82.878304 70.389198 15.6265
82.878304 71.032097 15.6265
82.878304 71.674896 15.6265
82.878304 72.317703 15.6265
82.878304 72.960503 15.6265
82.878304 73.603302 15.6265
82.878304 74.246201 15.6265
82.878304 74.889 15.6265
82.878304 75.531799 15.6265
82.878304 76.174599 15.6265
82.878304 76.817497 15.6265
82.878304 77.460297 15.6265
82.878304 78.103104 15.6265
82.878304 78.745903 15.6265
82.878304 79.388802 15.6265
82.878304 80.031601 15.6265
82.878304 80.6744 15.6265
82.878304 81.3172 15.6265
82.878304 81.960098 15.6265
82.878304 82.602898 15.6265
88.689697 -13.1042 15.5391
88.689697 -12.465 15.5391
88.689697 -11.8257 15.5391
88.689697 -11.1865 15.5391
88.689697 -10.5473 15.5391
88.689697 -9.9080496 15.5391
88.689697 -9.2688198 15.5391
88.689697 -8.62959 15.5391
88.689697 -7.9903598 15.5391
88.689697 -5.4334502 15.5391
88.689697 43.147999 15.5391
88.689697 54.014801 15.5391
88.689697 54.654099 15.5391
88.689697 55.293301 15.5391
88.689697 59.767899 15.5391
88.689697 60.407101 15.5391
88.689697 61.046398 15.5391
88.689697 61.6856 15.5391
88.689697 62.324799 15.5391
88.689697 62.9641 15.5391
88.689697 63.603298 15.5391
88.689697 64.2425 15.5391
88.689697 64.881699 15.5391
88.689697 65.521004 15.5391
88.689697 66.160202 15.5391
88.689697 66.7994 15.5391
88.689697 67.438698 15.5391
88.689697 68.077904 15.5391
88.689697 68.717102 15.5391
88.689697 69.3563 15.5391
88.689697 69.995598 15.5391
26.809299 -80.962402 10.9798
33.262798 -81.158798 10.9151
33.262798 -80.485298 10.9151
33.262798 -79.811798 10.9151
33.262798 -79.138298 10.9151
33.262798 -78.464798 10.9151
33.262798 -77.791199 10.9151
33.262798 -77.117699 10.9151
33.262798 147.164 10.9151
39.640598 -77.335503 10.8512
39.640598 -76.666 10.8512
39.640598 -75.996399 10.8512
39.640598 -75.326797 10.8512
39.640598 -74.657303 10.8512
39.640598 -73.987701 10.8512
39.640598 -73.3181 10.8512
39.640598 -72.648499 10.8512
39.640598 124.875 10.8512
39.640598 125.545 10.8512
39.640598 126.214 10.8512
39.640598 126.884 10.8512
39.640598 127.553 10.8512
39.640598 128.22301 10.8512
39.640598 128.89301 10.8512
39.640598 129.562 10.8512
39.640598 130.23199 10.8512
39.640598 130.901 10.8512
39.640598 131.571 10.8512
39.640598 132.24001 10.8512
39.640598 132.91 10.8512
39.640598 133.58 10.8512
39.640598 134.24899 10.8512
39.640598 134.91901 10.8512
39.640598 135.588 10.8512
39.640598 136.258 10.8512
39.640598 136.927 10.8512
39.640598 137.597 10.8512
39.640598 138.267 10.8512
39.640598 138.936 10.8512
39.640598 139.606 10.8512
39.640598 140.27499 10.8512
39.640598 140.94501 10.8512
39.640598 141.614 10.8512
39.640598 142.284 10.8512
39.640598 142.95399 10.8512
39.640598 143.623 10.8512
39.640598 144.293 10.8512
39.640598 144.96201 10.8512
39.640598 145.632 10.8512
45.944199 -73.556801 10.788
45.944199 -72.891098 10.788
45.944199 -72.225403 10.788
45.944199 -71.559799 10.788
45.944199 -70.894096 10.788
45.944199 -70.228401 10.788
45.944199 -69.562798 10.788
45.944199 -68.897102 10.788
45.944199 -68.2314 10.788
52.174702 -67.836304 10.7255
52.174702 -67.1745 10.7255
52.174702 -66.512703 10.7255
52.174702 -65.850899 10.7255
52.174702 -65.189102 10.7255
52.174702 -64.527199 10.7255
52.174702 -63.865398 10.7255
52.174702 -63.203602 10.7255
52.174702 -62.541801 10.7255
52.174702 -61.880001 10.7255
58.333599 -62.181702 10.6638
58.333599 -61.523701 10.6638
58.333599 -60.8657 10.6638
58.333599 -60.207699 10.6638
58.333599 -59.549702 10.6638
58.333599 -58.891701 10.6638
58.333599 -58.2337 10.6638
58.333599 -57.575699 10.6638
58.333599 -56.917702 10.6638
58.333599 -56.259701 10.6638
58.333599 -55.6017 10.6638
58.333599 -54.943699 10.6638
58.333599 106.268 10.6638
58.333599 106.926 10.6638
58.333599 107.584 10.6638
58.333599 108.242 10.6638
58.333599 108.9 10.6638
64.421898 -56.5919 10.6027
64.421898 -55.937698 10.6027
64.421898 -55.283401 10.6027
64.421898 -54.6292 10.6027
64.421898 -53.974899 10.6027
64.421898 -53.320702 10.6027
64.421898 -52.666401 10.6027
64.421898 -52.012199 10.6027
64.421898 -51.358002 10.6027
64.421898 -50.703701 10.6027
64.421898 -50.0495 10.6027
64.421898 -49.395199 10.6027
64.421898 -48.741001 10.6027
64.421898 -48.0868 10.6027
64.421898 100.426 10.6027
64.421898 101.08 10.6027
64.421898 101.735 10.6027
64.421898 102.389 10.6027
64.421898 103.043 10.6027
64.421898 103.697 10.6027
64.421898 104.352 10.6027
64.421898 105.006 10.6027
64.421898 105.66 10.6027
64.421898 106.314 10.6027
64.421898 106.968 10.6027
64.421898 107.623 10.6027
70.440903 -49.764599 10.5424
70.440903 -49.114101 10.5424
70.440903 -48.4636 10.5424
70.440903 -47.813099 10.5424
70.440903 -47.162601 10.5424
70.440903 -46.512001 10.5424
70.440903 -45.8615 10.5424
70.440903 -45.210999 10.5424
70.440903 -44.560501 10.5424
70.440903 -43.91 10.5424
70.440903 -43.259499 10.5424
70.440903 -42.608898 10.5424
70.440903 -41.958401 10.5424
70.440903 -41.307899 10.5424
70.440903 -40.657398 10.5424
70.440903 -40.006901 10.5424
70.440903 -39.3563 10.5424
70.440903 -38.705799 10.5424
70.440903 -38.055302 10.5424
70.440903 -37.4048 10.5424
70.440903 -36.754299 10.5424
70.440903 -36.103802 10.5424
70.440903 92.698799 10.5424
70.440903 93.349297 10.5424
70.440903 93.999901 10.5424
70.440903 94.650398 10.5424
70.440903 95.300903 10.5424
70.440903 95.951401 10.5424
70.440903 96.601898 10.5424
70.440903 97.252502 10.5424
70.440903 97.903 10.5424
70.440903 98.553497 10.5424
70.440903 99.204002 10.5424
70.440903 99.8545 10.5424
70.440903 100.505 10.5424
70.440903 101.156 10.5424
70.440903 101.806 10.5424
76.3918 -41.0741 10.4827
76.3918 -40.427299 10.4827
76.3918 -39.780499 10.4827
76.3918 -39.133598 10.4827
76.3918 -38.486801 10.4827
76.3918 -37.839901 10.4827
76.3918 -37.1931 10.4827
76.3918 -36.546299 10.4827
76.3918 -35.899399 10.4827
76.3918 -35.252602 10.4827
76.3918 -34.605801 10.4827
76.3918 -33.9589 10.4827
76.3918 -33.312099 10.4827
76.3918 -32.665298 10.4827
76.3918 -32.018398 10.4827
76.3918 -31.371599 10.4827
76.3918 -30.724701 10.4827
76.3918 -30.0779 10.4827
76.3918 -29.431101 10.4827
76.3918 -28.784201 10.4827
76.3918 -28.1374 10.4827
76.3918 -27.490601 10.4827
76.3918 -26.8437 10.4827
76.3918 83.1185 10.4827
76.3918 83.765404 10.4827
76.3918 84.412201 10.4827
76.3918 85.058998 10.4827
76.3918 85.705902 10.4827
76.3918 86.352699 10.4827
76.3918 86.999496 10.4827
76.3918 87.6464 10.4827
76.3918 88.293198 10.4827
76.3918 88.940002 10.4827
76.3918 89.586899 10.4827
76.3918 90.233704 10.4827
76.3918 90.8806 10.4827
76.3918 91.527397 10.4827
76.3918 92.174202 10.4827
76.3918 92.821098 10.4827
76.3918 93.467903 10.4827
76.3918 94.1147 10.4827
82.275703 -32.4814 10.4237
82.275703 -31.8382 10.4237
82.275703 -31.195 10.4237
82.275703 -30.5518 10.4237
82.275703 -29.908701 10.4237
82.275703 -29.265499 10.4237
82.275703 -28.622299 10.4237
82.275703 -27.979099 10.4237
82.275703 -27.335899 10.4237
82.275703 -26.692699 10.4237
82.275703 -26.0495 10.4237
82.275703 -25.4063 10.4237
82.275703 -24.7631 10.4237
82.275703 -24.1199 10.4237
82.275703 -22.8335 10.4237
82.275703 -22.1903 10.4237
82.275703 -21.5471 10.4237
82.275703 -20.9039 10.4237
82.275703 -20.2607 10.4237
82.275703 -19.6175 10.4237
82.275703 -18.9743 10.4237
82.275703 -18.3311 10.4237
82.275703 -17.687901 10.4237
82.275703 -17.044701 10.4237
82.275703 -16.401501 10.4237
82.275703 -15.7583 10.4237
82.275703 -15.1151 10.4237
82.275703 -14.4719 10.4237
82.275703 -13.8287 10.4237
82.275703 -13.1855 10.4237
82.275703 -12.5423 10.4237
82.275703 -11.8991 10.4237
82.275703 71.7164 10.4237
82.275703 72.359596 10.4237
82.275703 73.0028 10.4237
82.275703 73.646004 10.4237
82.275703 74.2892 10.4237
82.275703 74.932404 10.4237
82.275703 75.5756 10.4237
82.275703 76.218803 10.4237
82.275703 76.862 10.4237
82.275703 77.505203 10.4237
82.275703 78.148399 10.4237
82.275703 78.791603 10.4237
82.275703 79.434799 10.4237
82.275703 80.078003 10.4237
82.275703 80.721199 10.4237
82.275703 81.364403 10.4237
82.275703 82.007599 10.4237
82.275703 82.650803 10.4237
82.275703 83.293999 10.4237
82.275703 83.937202 10.4237
82.275703 84.580399 10.4237
82.275703 85.223602 10.4237
82.275703 85.866798 10.4237
82.275703 86.510002 10.4237
82.275703 87.153198 10.4237
82.275703 87.796402 10.4237
88.093803 -22.066099 10.3654
88.093803 -21.4265 10.3654
88.093803 -20.7869 10.3654
88.093803 -20.147301 10.3654
88.093803 -19.5077 10.3654
88.093803 -18.868099 10.3654
88.093803 -18.2285 10.3654
88.093803 -17.5889 10.3654
88.093803 -16.949301 10.3654
88.093803 -16.3097 10.3654
88.093803 -15.6701 10.3654
88.093803 -15.0305 10.3654
88.093803 -14.3909 10.3654
88.093803 -13.7513 10.3654
88.093803 -13.1118 10.3654
88.093803 -12.4722 10.3654
88.093803 -11.8326 10.3654
88.093803 -11.193 10.3654
88.093803 -10.5534 10.3654
88.093803 -9.9137602 10.3654
88.093803 -9.2741699 10.3654
88.093803 -8.6345701 10.3654
88.093803 -7.9949698 10.3654
88.093803 -7.35537 10.3654
88.093803 -6.7157698 10.3654
88.093803 -6.07618 10.3654
88.093803 -5.4365802 10.3654
88.093803 -4.7969799 10.3654
88.093803 -4.1573801 10.3654
88.093803 -3.5177901 10.3654
88.093803 -2.87819 10.3654
88.093803 -2.23859 10.3654
88.093803 -1.59899 10.3654
88.093803 -0.959396 10.3654
88.093803 -0.31979901 10.3654
88.093803 0.31979901 10.3654
88.093803 0.959396 10.3654
88.093803 1.59899 10.3654
88.093803 2.23859 10.3654
88.093803 2.87819 10.3654
88.093803 3.5177901 10.3654
88.093803 4.1573801 10.3654
88.093803 4.7969799 10.3654
88.093803 5.4365802 10.3654
88.093803 6.07618 10.3654
88.093803 6.7157698 10.3654
88.093803 7.35537 10.3654
88.093803 51.487598 10.3654
88.093803 52.127201 10.3654
88.093803 52.7668 10.3654
88.093803 53.406399 10.3654
88.093803 54.046001 10.3654
88.093803 54.6856 10.3654
88.093803 55.325199 10.3654
88.093803 55.964802 10.3654
88.093803 56.604401 10.3654
88.093803 57.243999 10.3654
88.093803 57.883598 10.3654
88.093803 58.523201 10.3654
88.093803 59.1628 10.3654
88.093803 59.802399 10.3654
88.093803 60.442001 10.3654
88.093803 61.0816 10.3654
88.093803 61.721199 10.3654
88.093803 62.360802 10.3654
88.093803 63.000401 10.3654
88.093803 63.639999 10.3654
88.093803 64.279602 10.3654
88.093803 64.919197 10.3654
88.093803 65.5588 10.3654
88.093803 66.198402 10.3654
88.093803 66.837898 10.3654
88.093803 67.477501 10.3654
88.093803 68.117104 10.3654
88.093803 68.756699 10.3654
88.093803 69.396301 10.3654
88.093803 70.035896 10.3654
88.093803 70.675499 10.3654
88.093803 71.315102 10.3654
88.093803 71.954697 10.3654
88.093803 72.594299 10.3654
88.093803 73.233902 10.3654
88.093803 73.873497 10.3654
88.093803 74.5131 10.3654
88.093803 75.152702 10.3654
88.093803 75.792297 10.3654
93.847099 -6.6784 10.3077
93.847099 -6.0423698 10.3077
93.847099 -5.4063301 10.3077
93.847099 -4.7702899 10.3077
93.847099 -4.1342502 10.3077
93.847099 -3.49821 10.3077
93.847099 -2.86217 10.3077
93.847099 -2.22613 10.3077
93.847099 -1.5901 10.3077
93.847099 -0.95405799 10.3077
93.847099 -0.318019 10.3077
93.847099 0.318019 10.3077
93.847099 0.95405799 10.3077
93.847099 1.5901 10.3077
93.847099 2.22613 10.3077
93.847099 2.86217 10.3077
93.847099 3.49821 10.3077
93.847099 4.1342502 10.3077
93.847099 4.7702899 10.3077
93.847099 5.4063301 10.3077
93.847099 6.0423698 10.3077
93.847099 6.6784 10.3077
93.847099 7.3144398 10.3077
93.847099 16.855 10.3077
93.847099 17.4911 10.3077
93.847099 32.1199 10.3077
93.847099 32.756001 10.3077
93.847099 40.388401 10.3077
93.847099 41.024502 10.3077
93.847099 41.6605 10.3077
93.847099 46.748798 10.3077
93.847099 50.565102 10.3077
93.847099 51.201099 10.3077
93.847099 51.837101 10.3077
93.847099 52.473202 10.3077
93.847099 53.1092 10.3077
93.847099 53.7453 10.3077
93.847099 54.381302 10.3077
93.847099 55.0173 10.3077
93.847099 55.6534 10.3077
93.847099 56.289398 10.3077
93.847099 56.9254 10.3077
93.847099 57.561501 10.3077
93.847099 58.197498 10.3077
93.847099 58.833599 10.3077
93.847099 59.469601 10.3077
93.847099 60.105598 10.3077
93.847099 60.741699 10.3077
93.847099 61.377701 10.3077
93.847099 62.013802 10.3077
93.847099 62.649799 10.3077
93.847099 63.285801 10.3077
93.847099 63.921902 10.3077
93.847099 64.557899 10.3077
32.6012 -80.534203 5.4608598
32.6012 -79.860298 5.4608598
32.6012 -79.186401 5.4608598
38.986801 -80.062202 5.4288602
38.986801 -79.392197 5.4288602
38.986801 -78.722198 5.4288602
38.986801 -78.0522 5.4288602
38.986801 -77.382301 5.4288602
38.986801 -76.712303 5.4288602
38.986801 -76.042297 5.4288602
38.986801 -75.372299 5.4288602
38.986801 -74.7024 5.4288602
38.986801 125.621 5.4288602
38.986801 126.291 5.4288602
38.986801 126.961 5.4288602
38.986801 127.63 5.4288602
38.986801 128.3 5.4288602
38.986801 128.97 5.4288602
38.986801 129.64 5.4288602
38.986801 130.31 5.4288602
38.986801 130.98 5.4288602
38.986801 131.64999 5.4288602
38.986801 132.32001 5.4288602
38.986801 132.99001 5.4288602
38.986801 133.66 5.4288602
38.986801 134.33 5.4288602
38.986801 135 5.4288602
38.986801 135.67 5.4288602
38.986801 136.34 5.4288602
38.986801 137.00999 5.4288602
38.986801 137.67999 5.4288602
38.986801 138.35001 5.4288602
38.986801 139.02 5.4288602
38.986801 140.36 5.4288602
38.986801 141.03 5.4288602
38.986801 141.7 5.4288602
38.986801 142.37 5.4288602
38.986801 143.03999 5.4288602
38.986801 143.71001 5.4288602
38.986801 144.38 5.4288602
38.986801 145.05 5.4288602
38.986801 145.72 5.4288602
38.986801 146.39 5.4288602
45.298 -75.599197 5.3972201
45.298 -74.933098 5.3972201
45.298 -74.266998 5.3972201
45.298 -73.600998 5.3972201
45.298 -72.934898 5.3972201
45.298 -72.268799 5.3972201
45.298 -71.602699 5.3972201
45.298 -70.936699 5.3972201
45.298 -70.270599 5.3972201
45.298 128.88499 5.3972201
45.298 129.55099 5.3972201
45.298 132.215 5.3972201
45.298 132.881 5.3972201
45.298 133.547 5.3972201
45.298 134.214 5.3972201
45.298 134.88 5.3972201
45.298 135.54601 5.3972201
45.298 140.20799 5.3972201
51.535999 -70.525703 5.3659501
51.535999 -69.863503 5.3659501
51.535999 -69.201302 5.3659501
51.535999 -68.539101 5.3659501
51.535999 -67.876801 5.3659501
51.535999 -67.2146 5.3659501
51.535999 -66.552399 5.3659501
51.535999 -65.890198 5.3659501
51.535999 -65.227997 5.3659501
57.702099 -66.169098 5.3350401
57.702099 -65.510696 5.3350401
57.702099 -64.852303 5.3350401
57.702099 -64.193901 5.3350401
57.702099 -63.5355 5.3350401
57.702099 -62.877102 5.3350401
57.702099 -62.2187 5.3350401
57.702099 -61.560299 5.3350401
57.702099 -60.901901 5.3350401
57.702099 -60.2435 5.3350401
57.702099 -59.585098 5.3350401
57.702099 -58.926701 5.3350401
57.702099 -58.268299 5.3350401
57.702099 110.282 5.3350401
57.702099 110.94 5.3350401
57.702099 111.599 5.3350401
57.702099 112.257 5.3350401
63.797699 -59.243801 5.3044901
63.797699 -58.589199 5.3044901
63.797699 -57.934601 5.3044901
63.797699 -57.2799 5.3044901
63.797699 -56.625301 5.3044901
63.797699 -55.970699 5.3044901
63.797699 -55.316002 5.3044901
63.797699 -54.6614 5.3044901
63.797699 -54.006802 5.3044901
63.797699 -53.3522 5.3044901
63.797699 -52.697498 5.3044901
63.797699 -52.0429 5.3044901
63.797699 -51.388302 5.3044901
63.797699 104.413 5.3044901
63.797699 105.068 5.3044901
63.797699 105.722 5.3044901
63.797699 106.377 5.3044901
63.797699 107.032 5.3044901
63.797699 107.686 5.3044901
63.797699 108.341 5.3044901
63.797699 108.996 5.3044901
63.797699 109.65 5.3044901
63.797699 110.305 5.3044901
63.797699 110.959 5.3044901
69.823799 -53.048302 5.2742801
69.823799 -52.3974 5.2742801
69.823799 -51.746498 5.2742801
69.823799 -51.0956 5.2742801
69.823799 -50.444698 5.2742801
69.823799 -49.7938 5.2742801
69.823799 -49.142899 5.2742801
69.823799 -48.492001 5.2742801
69.823799 -47.841099 5.2742801
69.823799 -47.190201 5.2742801
69.823799 -46.539299 5.2742801
69.823799 -45.888401 5.2742801
69.823799 -45.237499 5.2742801
69.823799 -44.586601 5.2742801
69.823799 -43.935699 5.2742801
69.823799 -43.284801 5.2742801
69.823799 98.611298 5.2742801
69.823799 99.262199 5.2742801
69.823799 99.913101 5.2742801
69.823799 100.564 5.2742801
69.823799 101.215 5.2742801
69.823799 101.866 5.2742801
69.823799 102.517 5.2742801
69.823799 103.168 5.2742801
69.823799 103.819 5.2742801
69.823799 104.469 5.2742801
69.823799 105.12 5.2742801
69.823799 105.771 5.2742801
69.823799 106.422 5.2742801
75.781601 -45.628601 5.24441
75.781601 -44.9814 5.24441
75.781601 -44.334202 5.24441
75.781601 -43.687 5.24441
75.781601 -43.0397 5.24441
75.781601 -42.392502 5.24441
75.781601 -41.7453 5.24441
75.781601 -41.098099 5.24441
75.781601 -40.450901 5.24441
75.781601 -39.803699 5.24441
75.781601 -39.156502 5.24441
75.781601 -38.509201 5.24441
75.781601 -37.862 5.24441
75.781601 -37.214802 5.24441
75.781601 -36.5676 5.24441
75.781601 -35.920399 5.24441
75.781601 -35.273201 5.24441
75.781601 -34.625999 5.24441
75.781601 -33.978699 5.24441
75.781601 -33.331501 5.24441
75.781601 -32.684299 5.24441
75.781601 -32.037102 5.24441
75.781601 90.933601 5.24441
75.781601 91.580803 5.24441
75.781601 92.227997 5.24441
75.781601 92.875198 5.24441
75.781601 93.5224 5.24441
75.781601 94.169701 5.24441
75.781601 94.816902 5.24441
75.781601 95.464104 5.24441
75.781601 96.111298 5.24441
75.781601 96.758499 5.24441
75.781601 97.405701 5.24441
75.781601 98.052902 5.24441
75.781601 98.700203 5.24441
75.781601 99.347397 5.24441
75.781601 99.994598 5.24441
75.781601 100.642 5.24441
81.672401 -36.361698 5.21488
81.672401 -35.718102 5.21488
81.672401 -35.0746 5.21488
81.672401 -34.431 5.21488
81.672401 -33.787399 5.21488
81.672401 -33.143902 5.21488
81.672401 -32.500301 5.21488
81.672401 -31.856701 5.21488
81.672401 -31.2131 5.21488
81.672401 -30.569599 5.21488
81.672401 -29.926001 5.21488
81.672401 -29.2824 5.21488
81.672401 -28.638901 5.21488
81.672401 -27.9953 5.21488
81.672401 -27.3517 5.21488
81.672401 -26.7082 5.21488
81.672401 -26.0646 5.21488
81.672401 -25.421 5.21488
81.672401 -24.777399 5.21488
81.672401 -24.1339 5.21488
81.672401 -23.490299 5.21488
81.672401 -22.846701 5.21488
81.672401 80.767998 5.21488
81.672401 81.411598 5.21488
81.672401 82.055199 5.21488
81.672401 82.6987 5.21488
81.672401 83.3423 5.21488
81.672401 83.985901 5.21488
81.672401 84.629501 5.21488
81.672401 85.273003 5.21488
81.672401 85.916603 5.21488
81.672401 86.560204 5.21488
81.672401 87.203697 5.21488
81.672401 87.847298 5.21488
81.672401 88.490898 5.21488
81.672401 89.134399 5.21488
81.672401 89.778 5.21488
81.672401 90.4216 5.21488
81.672401 91.065201 5.21488
81.672401 91.708702 5.21488
81.672401 92.352303 5.21488
87.4972 -27.838499 5.1856899
87.4972 -27.198601 5.1856899
87.4972 -26.558599 5.1856899
87.4972 -25.9186 5.1856899
87.4972 -25.2787 5.1856899
87.4972 -24.6387 5.1856899
87.4972 -23.998699 5.1856899
87.4972 -23.358801 5.1856899
87.4972 -22.7188 5.1856899
87.4972 -22.0788 5.1856899
87.4972 -20.158899 5.1856899
87.4972 -19.518999 5.1856899
87.4972 -18.879 5.1856899
87.4972 -18.239 5.1856899
87.4972 -17.5991 5.1856899
87.4972 -16.959101 5.1856899
87.4972 -16.319099 5.1856899
87.4972 -15.6792 5.1856899
87.4972 -15.0392 5.1856899
87.4972 -14.3992 5.1856899
87.4972 -13.7593 5.1856899
87.4972 -13.1193 5.1856899
87.4972 -12.4793 5.1856899
87.4972 -11.8394 5.1856899
87.4972 -11.1994 5.1856899
87.4972 -10.5594 5.1856899
87.4972 -9.9194803 5.1856899
87.4972 -9.27952 5.1856899
87.4972 -8.6395502 5.1856899
87.4972 -7.9995799 5.1856899
87.4972 -7.3596201 5.1856899
87.4972 -6.7196498 5.1856899
87.4972 -6.07968 5.1856899
87.4972 -5.4397202 5.1856899
87.4972 -4.7997499 5.1856899
87.4972 66.236504 5.1856899
87.4972 66.876503 5.1856899
87.4972 67.516502 5.1856899
87.4972 68.156403 5.1856899
87.4972 68.796402 5.1856899
87.4972 69.436401 5.1856899
87.4972 70.076302 5.1856899
87.4972 70.716301 5.1856899
87.4972 71.3563 5.1856899
87.4972 71.996201 5.1856899
87.4972 72.6362 5.1856899
87.4972 73.276199 5.1856899
87.4972 73.9161 5.1856899
87.4972 74.556099 5.1856899
87.4972 75.196098 5.1856899
87.4972 75.835999 5.1856899
87.4972 76.475998 5.1856899
87.4972 77.115997 5.1856899
87.4972 77.755898 5.1856899
87.4972 78.395897 5.1856899
87.4972 79.035896 5.1856899
87.4972 79.675797 5.1856899
87.4972 80.315804 5.1856899
87.4972 80.955803 5.1856899
87.4972 81.595703 5.1856899
87.4972 82.235703 5.1856899
87.4972 82.875702 5.1856899
87.4972 83.515602 5.1856899
87.4972 84.155602 5.1856899
87.4972 84.795601 5.1856899
93.257103 -18.773899 5.1568098
93.257103 -18.137501 5.1568098
93.257103 -17.501101 5.1568098
93.257103 -16.8647 5.1568098
93.257103 -16.2283 5.1568098
93.257103 -15.5919 5.1568098
93.257103 -14.9555 5.1568098
93.257103 -14.3191 5.1568098
93.257103 -13.6827 5.1568098
93.257103 -13.0463 5.1568098
93.257103 -12.4099 5.1568098
93.257103 -11.7735 5.1568098
93.257103 -11.1371 5.1568098
93.257103 -10.5007 5.1568098
93.257103 -9.8642502 5.1568098
93.257103 -9.22785 5.1568098
93.257103 -8.5914497 5.1568098
93.257103 -7.95504 5.1568098
93.257103 -7.3186402 5.1568098
93.257103 -6.68224 5.1568098
93.257103 -6.0458298 5.1568098
93.257103 -5.40943 5.1568098
93.257103 -4.7730298 5.1568098
93.257103 -4.13662 5.1568098
93.257103 -3.5002201 5.1568098
93.257103 -2.8638201 5.1568098
93.257103 -2.2274101 5.1568098
93.257103 -1.59101 5.1568098
93.257103 -0.95460498 5.1568098
93.257103 -0.31820199 5.1568098
93.257103 0.31820199 5.1568098
93.257103 0.95460498 5.1568098
93.257103 1.59101 5.1568098
93.257103 2.2274101 5.1568098
93.257103 2.8638201 5.1568098
93.257103 3.5002201 5.1568098
93.257103 4.13662 5.1568098
93.257103 4.7730298 5.1568098
93.257103 5.40943 5.1568098
93.257103 6.0458298 5.1568098
93.257103 6.68224 5.1568098
93.257103 7.3186402 5.1568098
93.257103 7.95504 5.1568098
93.257103 8.5914497 5.1568098
93.257103 9.22785 5.1568098
93.257103 9.8642502 5.1568098
93.257103 10.5007 5.1568098
93.257103 11.1371 5.1568098
93.257103 11.7735 5.1568098
93.257103 12.4099 5.1568098
93.257103 14.9555 5.1568098
93.257103 15.5919 5.1568098
93.257103 16.2283 5.1568098
93.257103 16.8647 5.1568098
93.257103 17.501101 5.1568098
93.257103 18.137501 5.1568098
93.257103 18.773899 5.1568098
93.257103 21.3195 5.1568098
93.257103 21.9559 5.1568098
93.257103 22.5923 5.1568098
93.257103 23.228701 5.1568098
93.257103 23.865101 5.1568098
93.257103 24.501499 5.1568098
93.257103 25.137899 5.1568098
93.257103 25.7743 5.1568098
93.257103 26.4107 5.1568098
93.257103 27.0471 5.1568098
93.257103 27.6835 5.1568098
93.257103 31.502001 5.1568098
93.257103 32.138401 5.1568098
93.257103 32.774799 5.1568098
93.257103 33.411201 5.1568098
93.257103 34.0476 5.1568098
93.257103 36.593201 5.1568098
93.257103 37.229599 5.1568098
93.257103 37.866001 5.1568098
93.257103 38.502399 5.1568098
93.257103 39.138802 5.1568098
93.257103 39.7752 5.1568098
93.257103 40.411598 5.1568098
93.257103 41.048 5.1568098
93.257103 41.684399 5.1568098
93.257103 42.320801 5.1568098
93.257103 42.957199 5.1568098
93.257103 43.593601 5.1568098
93.257103 44.23 5.1568098
93.257103 44.866402 5.1568098
93.257103 45.5028 5.1568098
93.257103 46.139198 5.1568098
93.257103 46.7757 5.1568098
93.257103 47.412102 5.1568098
93.257103 48.0485 5.1568098
93.257103 48.684898 5.1568098
93.257103 49.321301 5.1568098
93.257103 49.957699 5.1568098
93.257103 50.594101 5.1568098
93.257103 51.230499 5.1568098
93.257103 51.866901 5.1568098
93.257103 52.5033 5.1568098
93.257103 53.139702 5.1568098
93.257103 53.7761 5.1568098
93.257103 54.412498 5.1568098
93.257103 55.048901 5.1568098
93.257103 55.685299 5.1568098
93.257103 56.321701 5.1568098
93.257103 56.958099 5.1568098
93.257103 57.594501 5.1568098
93.257103 58.2309 5.1568098
93.257103 58.867298 5.1568098
93.257103 59.5037 5.1568098
93.257103 60.140099 5.1568098
93.257103 60.776501 5.1568098
93.257103 61.412899 5.1568098
93.257103 62.049301 5.1568098
93.257103 62.685699 5.1568098
93.257103 63.322102 5.1568098
93.257103 63.9585 5.1568098
93.257103 64.594902 5.1568098
93.257103 65.2314 5.1568098
93.257103 65.867798 5.1568098
93.257103 66.504204 5.1568098
93.257103 67.140602 5.1568098
93.257103 67.777 5.1568098
93.257103 68.413399 5.1568098
93.257103 69.049797 5.1568098
93.257103 69.686203 5.1568098
93.257103 70.322601 5.1568098
93.257103 70.959 5.1568098
93.257103 71.595398 5.1568098
93.257103 72.231796 5.1568098
93.257103 72.868202 5.1568098
93.257103 73.504601 5.1568098
98.9533 0.31643999 5.1282601
98.9533 0.94931901 5.1282601
98.9533 1.5822001 5.1282601
98.9533 2.21508 5.1282601
98.9533 2.84796 5.1282601
98.9533 3.48084 5.1282601
98.9533 4.1137199 5.1282601
98.9533 4.7466002 5.1282601
98.9533 5.3794799 5.1282601
98.9533 6.0123601 5.1282601
98.9533 6.6452398 5.1282601
98.9533 7.27812 5.1282601
98.9533 7.9109998 5.1282601
98.9533 8.5438805 5.1282601
98.9533 9.1767597 5.1282601
98.9533 9.8096304 5.1282601
98.9533 10.4425 5.1282601
98.9533 11.0754 5.1282601
98.9533 11.7083 5.1282601
98.9533 15.5056 5.1282601
98.9533 16.138399 5.1282601
98.9533 16.771299 5.1282601
98.9533 17.4042 5.1282601
98.9533 18.0371 5.1282601
98.9533 18.669901 5.1282601
98.9533 19.302799 5.1282601
98.9533 20.5686 5.1282601
98.9533 21.2015 5.1282601
98.9533 21.834299 5.1282601
98.9533 22.467199 5.1282601
98.9533 23.1001 5.1282601
98.9533 23.733 5.1282601
98.9533 24.3659 5.1282601
98.9533 24.998699 5.1282601
98.9533 25.631599 5.1282601
98.9533 26.2645 5.1282601
98.9533 26.8974 5.1282601
98.9533 27.5303 5.1282601
98.9533 28.163099 5.1282601
98.9533 30.6947 5.1282601
98.9533 31.327499 5.1282601
98.9533 31.9604 5.1282601
98.9533 32.5933 5.1282601
98.9533 33.2262 5.1282601
98.9533 37.023499 5.1282601
98.9533 37.6563 5.1282601
98.9533 38.2892 5.1282601
98.9533 38.9221 5.1282601
98.9533 39.555 5.1282601
98.9533 40.187901 5.1282601
98.9533 40.820702 5.1282601
98.9533 41.453602 5.1282601
98.9533 42.086498 5.1282601
98.9533 42.719398 5.1282601
98.9533 43.352299 5.1282601
98.9533 43.9851 5.1282601
98.9533 44.618 5.1282601
98.9533 45.2509 5.1282601
98.9533 45.883801 5.1282601
98.9533 46.516701 5.1282601
98.9533 47.149502 5.1282601
98.9533 47.782398 5.1282601
98.9533 48.415298 5.1282601
98.9533 49.048199 5.1282601
98.9533 49.681099 5.1282601
98.9533 50.3139 5.1282601
98.9533 50.9468 5.1282601
98.9533 51.5797 5.1282601
98.9533 52.212601 5.1282601
98.9533 52.845501 5.1282601
98.9533 53.478298 5.1282601
98.9533 54.111198 5.1282601
98.9533 54.744099 5.1282601
98.9533 55.376999 5.1282601
98.9533 56.0098 5.1282601
98.9533 56.6427 5.1282601
98.9533 57.2756 5.1282601
38.332199 -79.440201 0
38.332199 -78.769798 0
38.332199 -78.099403 0
38.332199 -77.429001 0
38.332199 -76.758698 0
38.332199 128.37801 0
38.332199 129.048 0
38.332199 129.71899 0
38.332199 130.38901 0
38.332199 131.06 0
38.332199 131.73 0
38.332199 132.39999 0
38.332199 133.071 0
38.332199 133.741 0
38.332199 134.411 0
38.332199 135.082 0
38.332199 135.752 0
38.332199 136.423 0
38.332199 137.093 0
38.332199 137.763 0
38.332199 144.467 0
38.332199 145.138 0
38.332199 145.808 0
44.651001 -78.310501 0
44.651001 -77.643997 0
44.651001 -76.9776 0
44.651001 -76.311096 0
44.651001 -75.6446 0
44.651001 -74.978104 0
44.651001 -74.311699 0
44.651001 -73.645203 0
44.651001 -72.978699 0
44.651001 -72.312202 0
44.651001 128.29601 0
44.651001 128.96201 0
44.651001 129.629 0
44.651001 130.295 0
44.651001 130.96201 0
44.651001 131.62801 0
44.651001 132.295 0
44.651001 132.961 0
44.651001 133.62801 0
44.651001 134.29401 0
44.651001 134.961 0
44.651001 135.627 0
44.651001 136.29401 0
44.651001 136.96001 0
44.651001 137.627 0
44.651001 138.293 0
44.651001 138.959 0
44.651001 139.62601 0
44.651001 140.29201 0
44.651001 140.959 0
44.651001 141.625 0
44.651001 142.29201 0
44.651001 142.95799 0
44.651001 143.625 0
44.651001 144.291 0
50.8965 -73.880898 0
50.8965 -73.2183 0
50.8965 -72.555702 0
50.8965 -71.892998 0
50.8965 -71.2304 0
50.8965 -70.567802 0
50.8965 -69.905197 0
50.8965 -69.242599 0
50.8965 -68.580002 0
50.8965 -67.917397 0
50.8965 -67.254799 0
57.07 -69.502296 0
57.07 -68.843498 0
57.07 -68.1847 0
57.07 -67.525902 0
57.07 -66.867104 0
57.07 -66.208397 0
57.07 -65.549599 0
57.07 -64.8908 0
